ply
format ascii 1.0
element vertex 602
property float x
property float y
property float z
property float nx
property float ny
property float nz
property uchar red
property uchar green
property uchar blue
end_header
-0.0589933618903160095 0.0371585115790367126 0.0221419632434844971 0 0 0 0 0 0
-0.060204140841960907 0.0449737273156642914 0.0139792319387197495 0 0 0 0 0 0
-0.0690073221921920776 0.0368841886520385742 -0.0115017397329211235 0 0 0 0 0 0
-0.0663220733404159546 0.0387904457747936249 -0.00217063957825303078 0 0 0 0 0 0
-0.065461277961730957 0.0509791970252990723 -0.000448084290837869048 0 0 0 0 0 0
-0.0691017284989356995 0.052478305995464325 -0.0110314441844820976 0 0 0 0 0 0
0.0811541825532913208 0.0426303446292877197 -0.048475172370672226 0 0 0 0 0 0
-0.0721211954951286316 0.0101579483598470688 -0.00844006519764661789 0 0 0 0 0 0
-0.068730771541595459 0.016210777685046196 -0.00138230249285697937 0 0 0 0 0 0
-0.0674599632620811462 0.0271102562546730042 -0.00259764818474650383 0 0 0 0 0 0
-0.0705050081014633179 0.0228843726217746735 -0.0106767304241657257 0 0 0 0 0 0
0.0489289760589599609 -0.134341001510620117 -0.0355267822742462158 0 0 0 0 0 0
0.0124066993594169617 0.0313801467418670654 0.0389272496104240417 0 0 0 0 0 0
-0.00025895968428812921 0.0093946065753698349 0.0629412680864334106 0 0 0 0 0 0
0.0832636281847953796 -0.0321763902902603149 -0.0624296143651008606 0 0 0 0 0 0
0.0720142126083374023 -0.0100083192810416222 -0.0394007265567779541 0 0 0 0 0 0
-0.0632867366075515747 0.106924198567867279 -0.0103315813466906548 0 0 0 0 0 0
-0.0643393993377685547 0.0992574840784072876 -0.00114082894288003445 0 0 0 0 0 0
0.0827343389391899109 0.0242078062146902084 -0.0598777942359447479 0 0 0 0 0 0
-0.0490355417132377625 0.00323414569720625877 0.0289906226098537445 0 0 0 0 0 0
0.0817848443984985352 0.0197319444268941879 -0.0639005452394485474 0 0 0 0 0 0
0.0170047469437122345 -0.0839880108833312988 -0.118702851235866547 0 0 0 0 0 0
-0.0495355203747749329 0.12395554780960083 -0.03430972620844841 0 0 0 0 0 0
-0.050520431250333786 0.120354011654853821 -0.0256693270057439804 0 0 0 0 0 0
-0.0299369320273399353 0.133013173937797546 -0.009448993019759655 0 0 0 0 0 0
-0.0288474541157484055 0.133861452341079712 -0.0211011171340942383 0 0 0 0 0 0
-0.0535117015242576599 0.117525696754455566 -0.0169523134827613831 0 0 0 0 0 0
-0.0583758167922496796 0.114178776741027832 -0.00694154528900980949 0 0 0 0 0 0
-0.047246493399143219 0.118826389312744141 -0.000418954528868198395 0 0 0 0 0 0
-0.0462036281824111938 0.125429823994636536 -0.00919841695576906204 0 0 0 0 0 0
-0.0575182661414146423 0.105615675449371338 0.000767331686802208424 0 0 0 0 0 0
-0.0525250136852264404 0.0960594862699508667 0.00670600682497024536 0 0 0 0 0 0
-0.0415289551019668579 0.0988539978861808777 0.0129099562764167786 0 0 0 0 0 0
-0.0441197603940963745 0.10793815553188324 0.00591834774240851402 0 0 0 0 0 0
-0.0603370778262615204 0.110879659652709961 -0.0262668021023273468 0 0 0 0 0 0
-0.0621213614940643311 0.118791304528713226 -0.103759482502937317 0 0 0 0 0 0
-0.0487682782113552094 0.0880196541547775269 0.0137262418866157532 0 0 0 0 0 0
-0.0456467941403388977 0.0783798918128013611 0.0205380115658044815 0 0 0 0 0 0
-0.0374854877591133118 0.0795763209462165833 0.0262991990894079208 0 0 0 0 0 0
-0.0396791771054267883 0.0902284383773803711 0.0200076978653669357 0 0 0 0 0 0
-0.0638412386178970337 0.0406952053308486938 0.00601241737604141235 0 0 0 0 0 0
-0.0101351402699947357 0.027259504422545433 0.0475349240005016327 0 0 0 0 0 0
0.00985988136380910873 0.0291051622480154037 0.0368193350732326508 0 0 0 0 0 0
0.0440611988306045532 0.0265472661703824997 0.030828109011054039 0 0 0 0 0 0
-0.05048399418592453 0.0673496276140213013 0.0196335222572088242 0 0 0 0 0 0
-0.0421830825507640839 0.0303360279649496078 0.0350689440965652466 0 0 0 0 0 0
-0.0447646938264369965 0.0370106324553489685 -0.152484625577926636 0 0 0 0 0 0
0.0088274441659450531 -0.0160239189863204956 0.058209642767906189 0 0 0 0 0 0
0.0789035558700561523 0.0112831555306911469 -0.0560207441449165344 0 0 0 0 0 0
-0.0585935227572917938 0.115680426359176636 -0.0332697965204715729 0 0 0 0 0 0
-0.086757950484752655 0.0475866757333278656 -0.067715086042881012 0 0 0 0 0 0
-0.0569343790411949158 -0.0905181765556335449 -0.0756735950708389282 0 0 0 0 0 0
-0.0429873280227184296 0.0270916875451803207 0.0321699529886245728 0 0 0 0 0 0
-0.046824183315038681 -0.0773062929511070251 -0.0953048914670944214 0 0 0 0 0 0
-0.0561893582344055176 -0.0773647278547286987 -0.079766005277633667 0 0 0 0 0 0
-0.0556100718677043915 -0.062732309103012085 -0.0853974446654319763 0 0 0 0 0 0
-0.0455555915832519531 -0.0626089796423912048 -0.101638391613960266 0 0 0 0 0 0
-0.0582054965198040009 0.0910686254501342773 0.00448324205353856087 0 0 0 0 0 0
-0.0347317755222320557 -0.0394875518977642059 -0.123758554458618164 0 0 0 0 0 0
0.0821876451373100281 0.0165837742388248444 -0.0654284283518791199 0 0 0 0 0 0
-0.015788838267326355 0.076205030083656311 0.0361980348825454712 0 0 0 0 0 0
-0.015520930290222168 0.0525052808225154877 0.0451593101024627686 0 0 0 0 0 0
0.0694972425699234009 -0.0296994205564260483 -0.0558294467628002167 0 0 0 0 0 0
-0.00930235162377357483 -0.0576153993606567383 -0.125786304473876953 0 0 0 0 0 0
0.0364897027611732483 0.0194063819944858551 0.0325715392827987671 0 0 0 0 0 0
-0.00961418543010950089 -0.0721184238791465759 -0.122813969850540161 0 0 0 0 0 0
-0.0625611245632171631 -0.0636753886938095093 -0.0683419108390808105 0 0 0 0 0 0
-0.0787328705191612244 0.0239835139364004135 -0.0449056625366210938 0 0 0 0 0 0
-0.00105286238249391317 0.0525038242340087891 0.0462289862334728241 0 0 0 0 0 0
-0.00975692830979824066 -0.0885345935821533203 -0.121005140244960785 0 0 0 0 0 0
0.0418685786426067352 0.0236006826162338257 0.0254321303218603134 0 0 0 0 0 0
-0.0126715153455734253 -0.00902252364903688431 0.0615753978490829468 0 0 0 0 0 0
-0.0174713954329490662 -0.0140294041484594345 0.0551972687244415283 0 0 0 0 0 0
-0.0125471977517008781 -0.00731311319395899773 0.0594029687345027924 0 0 0 0 0 0
0.0771506130695343018 -0.152618199586868286 -0.0778387933969497681 0 0 0 0 0 0
-0.0140246329829096794 -0.00618948787450790405 0.0561452917754650116 0 0 0 0 0 0
-0.01315276138484478 -0.005967690609395504 0.0568766705691814423 0 0 0 0 0 0
-0.0135841891169548035 -0.00608349218964576721 0.0569025874137878418 0 0 0 0 0 0
-0.0140741113573312759 -0.00645449012517929077 0.0551944486796855927 0 0 0 0 0 0
-0.0127382166683673859 -0.00617831666022539139 0.0563804209232330322 0 0 0 0 0 0
-0.0117228319868445396 -0.00755533576011657715 0.0557693615555763245 0 0 0 0 0 0
-0.0129943192005157471 -0.015774628147482872 0.0589700043201446533 0 0 0 0 0 0
-0.0116677992045879364 -0.0157898887991905212 0.0668574720621109009 0 0 0 0 0 0
-0.0115736853331327438 -0.0138118145987391472 0.064897589385509491 0 0 0 0 0 0
-0.0138359805569052696 -0.0149331223219633102 0.0564182847738265991 0 0 0 0 0 0
-0.0128885982558131218 -0.012633870355784893 0.0551565550267696381 0 0 0 0 0 0
-0.0159324165433645248 -0.0126210441812872887 0.0623010508716106415 0 0 0 0 0 0
-0.0145962163805961609 -0.0140904542058706284 0.0672056227922439575 0 0 0 0 0 0
0.0799574851989746094 -0.0200207903981208801 -0.0564734451472759247 0 0 0 0 0 0
0.0758479759097099304 -0.0204967893660068512 -0.0519520454108715057 0 0 0 0 0 0
-0.0731498003005981445 -0.0150450831279158592 -0.0611625239253044128 0 0 0 0 0 0
-0.0735828578472137451 -0.031406305730342865 -0.0500376448035240173 0 0 0 0 0 0
-0.0745204240083694458 -0.0283841043710708618 -0.0475431084632873535 0 0 0 0 0 0
-0.0844577774405479431 0.0272789951413869858 -0.0807404965162277222 0 0 0 0 0 0
-0.0812858939170837402 0.0149348406121134758 -0.0896809548139572144 0 0 0 0 0 0
-0.0816210955381393433 0.0122146410867571831 -0.0646730661392211914 0 0 0 0 0 0
-0.0799014270305633545 0.00264926580712199211 -0.0853140056133270264 0 0 0 0 0 0
-0.0798516497015953064 0.0202798359096050262 -0.050616919994354248 0 0 0 0 0 0
0.086229763925075531 0.0204736348241567612 -0.0685971304774284363 0 0 0 0 0 0
-0.0862909182906150818 0.0449023060500621796 -0.0782978534698486328 0 0 0 0 0 0
0.0945009812712669373 0.0118719097226858139 -0.072276383638381958 0 0 0 0 0 0
-0.014132380485534668 -0.0494972690939903259 0.0467002801597118378 0 0 0 0 0 0
0.00261378055438399315 -0.030911419540643692 0.0612444095313549042 0 0 0 0 0 0
0.0857149362564086914 -0.000946746149566024542 -0.0736092552542686462 0 0 0 0 0 0
0.0905942469835281372 -0.0171191152185201645 -0.070381850004196167 0 0 0 0 0 0
-0.0594528019428253174 -0.100435458123683929 -0.0648912936449050903 0 0 0 0 0 0
0.079846501350402832 0.0125276437029242516 -0.0591186657547950745 0 0 0 0 0 0
0.0395279303193092346 -0.00548712164163589478 0.0373994484543800354 0 0 0 0 0 0
0.0878002792596817017 0.0194687880575656891 -0.0624849125742912292 0 0 0 0 0 0
-0.0554190203547477722 -0.0974795818328857422 -0.0784723758697509766 0 0 0 0 0 0
0.0796693563461303711 0.00995275937020778656 -0.0550945475697517395 0 0 0 0 0 0
0.00379128847271203995 -0.00501344446092844009 0.0712050050497055054 0 0 0 0 0 0
0.0596545152366161346 0.0999455079436302185 -0.0180739164352416992 0 0 0 0 0 0
-0.0517541170120239258 -0.099687919020652771 -0.0862813293933868408 0 0 0 0 0 0
0.0070604933425784111 -0.0719338208436965942 0.0489567890763282776 0 0 0 0 0 0
0.00337653607130050659 -0.0059171607717871666 0.0576664917171001434 0 0 0 0 0 0
0.00338668748736381531 -0.00594218354672193527 0.0581216737627983093 0 0 0 0 0 0
0.0024102446623146534 -0.00571394059807062149 0.0582592636346817017 0 0 0 0 0 0
-0.0581950061023235321 -0.0963109582662582397 -0.0464406833052635193 0 0 0 0 0 0
0.0957358404994010925 -0.155392348766326904 -0.0994232296943664551 0 0 0 0 0 0
0.00500126928091049194 -0.188650816679000854 -0.150304853916168213 0 0 0 0 0 0
0.0658331960439682007 -0.16556684672832489 -0.0518382787704467773 0 0 0 0 0 0
0.0477120876312255859 -0.171572014689445496 -0.0339847728610038757 0 0 0 0 0 0
0.0582423359155654907 -0.130641624331474304 -0.106317698955535889 0 0 0 0 0 0
0.0498954132199287415 -0.141134187579154968 -0.037441059947013855 0 0 0 0 0 0
0.0315452218055725098 -0.164109736680984497 -0.023276105523109436 0 0 0 0 0 0
0.0176964607089757919 -0.155921041965484619 -0.0158173423260450363 0 0 0 0 0 0
0.0220576133579015732 -0.156948819756507874 -0.138839766383171082 0 0 0 0 0 0
0.0392553955316543579 -0.180387228727340698 -0.024667050689458847 0 0 0 0 0 0
0.0780982151627540588 -0.147430896759033203 -0.116313233971595764 0 0 0 0 0 0
0.0756231546401977539 -0.159382998943328857 -0.0675648674368858337 0 0 0 0 0 0
0.0619998499751091003 -0.13023298978805542 -0.0849107131361961365 0 0 0 0 0 0
0.0672004148364067078 -0.151283577084541321 -0.064695306122303009 0 0 0 0 0 0
0.0364652648568153381 -0.147021204233169556 -0.131564602255821228 0 0 0 0 0 0
0.0591435953974723816 -0.155255913734436035 -0.0491595864295959473 0 0 0 0 0 0
0.0821350142359733582 -0.164121761918067932 -0.0679030492901802063 0 0 0 0 0 0
0.0328906737267971039 -0.17468675971031189 -0.0234353393316268921 0 0 0 0 0 0
0.0778648853302001953 -0.180558532476425171 -0.045503564178943634 0 0 0 0 0 0
0.0424380376935005188 -0.188907966017723083 -0.0178196132183074951 0 0 0 0 0 0
0.0825445353984832764 -0.167916163802146912 -0.141281247138977051 0 0 0 0 0 0
0.04953031986951828 -0.183060333132743835 -0.15479433536529541 0 0 0 0 0 0
0.0684807747602462769 -0.169684648513793945 -0.145648300647735596 0 0 0 0 0 0
0.103098079562187195 -0.160557672381401062 -0.119518235325813293 0 0 0 0 0 0
0.0331294648349285126 -0.171297043561935425 -0.147199541330337524 0 0 0 0 0 0
0.047504134476184845 -0.16739402711391449 -0.145344480872154236 0 0 0 0 0 0
0.0168132651597261429 -0.14602363109588623 -0.0134022291749715805 0 0 0 0 0 0
0.0892017483711242676 -0.154975652694702148 -0.120296046137809753 0 0 0 0 0 0
0.0729540809988975525 -0.159152835607528687 -0.134800732135772705 0 0 0 0 0 0
0.021210014820098877 -0.195734590291976929 -0.00827771425247192383 0 0 0 0 0 0
0.00544589385390281677 -0.17511555552482605 -0.146617472171783447 0 0 0 0 0 0
0.0100990720093250275 -0.174114510416984558 -0.017172275111079216 0 0 0 0 0 0
0.00919693056493997574 -0.119875453412532806 -0.123656734824180603 0 0 0 0 0 0
0.032650478184223175 -0.121729031205177307 -0.118038855493068695 0 0 0 0 0 0
0.0638573318719863892 -0.177056238055229187 -0.151839256286621094 0 0 0 0 0 0
0.0109891025349497795 -0.194866538047790527 -0.0107577173039317131 0 0 0 0 0 0
0.00545228738337755203 -0.14871138334274292 -0.010891343466937542 0 0 0 0 0 0
0.0336879901587963104 -0.179258868098258972 -0.151386409997940063 0 0 0 0 0 0
0.0722977444529533386 -0.145666450262069702 -0.0812226831912994385 0 0 0 0 0 0
0.0700430721044540405 -0.139538928866386414 -0.0907465368509292603 0 0 0 0 0 0
0.0595833286643028259 -0.122501134872436523 -0.0617947988212108612 0 0 0 0 0 0
0.0415547564625740051 -0.14924757182598114 -0.0293694045394659042 0 0 0 0 0 0
0.033579118549823761 -0.148729115724563599 -0.022962203249335289 0 0 0 0 0 0
0.0782564505934715271 -0.174402520060539246 -0.148036062717437744 0 0 0 0 0 0
0.0469583719968795776 -0.154952511191368103 -0.0350162424147129059 0 0 0 0 0 0
0.0108709856867790222 -0.161594241857528687 -0.141304582357406616 0 0 0 0 0 0
0.00920367427170276642 -0.148952513933181763 -0.135902926325798035 0 0 0 0 0 0
0.00956065021455287933 -0.154176816344261169 -0.013176552951335907 0 0 0 0 0 0
0.0241109114140272141 -0.18247513473033905 -0.0172871928662061691 0 0 0 0 0 0
0.00572267267853021622 -0.167936921119689941 -0.016287580132484436 0 0 0 0 0 0
0.0530355945229530334 -0.172467276453971863 -0.148744344711303711 0 0 0 0 0 0
0.100761070847511292 -0.163369208574295044 -0.0844384059309959412 0 0 0 0 0 0
0.0910837650299072266 -0.172685325145721436 -0.0641823485493659973 0 0 0 0 0 0
0.060896851122379303 -0.185574337840080261 -0.029744952917098999 0 0 0 0 0 0
0.0256374552845954895 -0.148919612169265747 -0.133970111608505249 0 0 0 0 0 0
0.0661118030548095703 -0.136648297309875488 -0.107061050832271576 0 0 0 0 0 0
0.0232772566378116608 -0.172506138682365417 -0.0192070417106151581 0 0 0 0 0 0
0.0582371652126312256 -0.13799595832824707 -0.0513750873506069183 0 0 0 0 0 0
0.0104001760482788086 -0.184760391712188721 -0.0162882283329963684 0 0 0 0 0 0
0.0567693710327148438 -0.130334168672561646 -0.0486900322139263153 0 0 0 0 0 0
0.0586401894688606262 -0.104208402335643768 -0.0602521225810050964 0 0 0 0 0 0
0.0184616744518280029 -0.11669217050075531 -0.12111857533454895 0 0 0 0 0 0
0.0286332331597805023 -0.142980575561523438 -0.019121609628200531 0 0 0 0 0 0
0.087459370493888855 0.0532037727534770966 -0.0689891725778579712 0 0 0 0 0 0
0.0777492523193359375 0.00836442969739437103 -0.0834829062223434448 0 0 0 0 0 0
0.00588248297572135925 -0.0488431826233863831 0.0469413325190544128 0 0 0 0 0 0
0.0853420719504356384 0.0225213803350925446 -0.0651531517505645752 0 0 0 0 0 0
0.0172927137464284897 -0.100973114371299744 -0.11895453929901123 0 0 0 0 0 0
0.034317508339881897 -0.102399080991744995 -0.110504090785980225 0 0 0 0 0 0
0.0444632731378078461 -0.103543147444725037 -0.0999686047434806824 0 0 0 0 0 0
0.0515404306352138519 -0.105426475405693054 -0.0877840444445610046 0 0 0 0 0 0
0.0550936274230480194 -0.107083126902580261 -0.0797718167304992676 0 0 0 0 0 0
0.0585162267088890076 -0.11070512980222702 -0.0653085410594940186 0 0 0 0 0 0
0.0575386211276054382 -0.113913200795650482 -0.0506347864866256714 0 0 0 0 0 0
0.0722086727619171143 -0.0180075168609619141 -0.0519744269549846649 0 0 0 0 0 0
0.0200378764420747757 -0.133252412080764771 -0.0119720865041017532 0 0 0 0 0 0
0.00272259907796978951 -0.0093799494206905365 0.0554010383784770966 0 0 0 0 0 0
0.0020342743955552578 -0.00864887610077857971 0.0559839829802513123 0 0 0 0 0 0
0.061017841100692749 -0.055291052907705307 -0.013194630853831768 0 0 0 0 0 0
0.0652778074145317078 -0.0451831668615341187 -0.0207196623086929321 0 0 0 0 0 0
0.0248561762273311615 -0.0830151736736297607 0.0321817994117736816 0 0 0 0 0 0
0.00291669368743896484 -0.0883703455328941345 0.0444474481046199799 0 0 0 0 0 0
0.0228458251804113388 -0.0727337449789047241 0.0384258441627025604 0 0 0 0 0 0
0.0115948095917701721 -0.0922653600573539734 0.0363504737615585327 0 0 0 0 0 0
0.0254210382699966431 -0.0884768366813659668 0.0241479352116584778 0 0 0 0 0 0
0.048107929527759552 -0.0745587274432182312 -0.00129305059090256691 0 0 0 0 0 0
0.0550356507301330566 -0.0677081272006034851 -0.011184394359588623 0 0 0 0 0 0
0.0655770599842071533 -0.046384960412979126 -0.0279753357172012329 0 0 0 0 0 0
0.0679967999458312988 -0.037180289626121521 -0.0367323607206344604 0 0 0 0 0 0
0.00590734928846359253 -0.0675512403249740601 0.0488867014646530151 0 0 0 0 0 0
0.0615005642175674438 -0.0576813928782939911 -0.0203468091785907745 0 0 0 0 0 0
0.0336934179067611694 -0.0834134370088577271 0.0176730230450630188 0 0 0 0 0 0
0.0258533768355846405 -0.0595055930316448212 0.0376582890748977661 0 0 0 0 0 0
0.0348150506615638733 -0.0496776849031448364 0.0366090349853038788 0 0 0 0 0 0
0.0337311923503875732 -0.0379026606678962708 0.0409183911979198456 0 0 0 0 0 0
0.0415494553744792938 -0.0342756286263465881 0.0356662832200527191 0 0 0 0 0 0
0.0455251596868038177 -0.0304561220109462738 0.0319594927132129669 0 0 0 0 0 0
0.0318957790732383728 -0.0327638536691665649 0.0430572032928466797 0 0 0 0 0 0
0.0395131632685661316 -0.0264282524585723877 0.0392277166247367859 0 0 0 0 0 0
0.0429275333881378174 -0.0215046238154172897 0.0364764034748077393 0 0 0 0 0 0
0.0104846460744738579 -0.0952988862991333008 0.0305646620690822601 0 0 0 0 0 0
0.0170591771602630615 -0.0942387878894805908 0.0256669074296951294 0 0 0 0 0 0
0.043776385486125946 -0.0829070284962654114 -0.00464779464527964592 0 0 0 0 0 0
0.0596345439553260803 -0.0644463300704956055 -0.0264164917171001434 0 0 0 0 0 0
0.0364679358899593353 -0.0874281749129295349 0.00533085642382502556 0 0 0 0 0 0
0.0625289678573608398 -0.0557969324290752411 -0.040598548948764801 0 0 0 0 0 0
0.0639802217483520508 -0.0519128516316413879 -0.034910246729850769 0 0 0 0 0 0
0.0581544339656829834 -0.0704803541302680969 -0.0313551090657711029 0 0 0 0 0 0
0.0486251823604106903 -0.0851102918386459351 -0.0205748230218887329 0 0 0 0 0 0
0.0382247641682624817 -0.0936806723475456238 -0.00890875793993473053 0 0 0 0 0 0
0.0273956954479217529 -0.100737176835536957 -0.00110899098217487335 0 0 0 0 0 0
0.00228507816791534424 -0.0786531120538711548 0.049492664635181427 0 0 0 0 0 0
0.0133997369557619095 -0.0986143499612808228 0.0184590183198451996 0 0 0 0 0 0
0.0175277777016162872 -0.0989845246076583862 0.0130851604044437408 0 0 0 0 0 0
0.0416962355375289917 -0.0787873268127441406 0.00880091357976198196 0 0 0 0 0 0
0.0203102994710206985 -0.0650234520435333252 0.0404466055333614349 0 0 0 0 0 0
0.00251222215592861176 -0.102743014693260193 0.0156012475490570068 0 0 0 0 0 0
0.00405626976862549782 -0.10731823742389679 0.0077976984903216362 0 0 0 0 0 0
0.0158420838415622711 -0.111967682838439941 -0.000949327368289232254 0 0 0 0 0 0
0.00883171148598194122 -0.0818661674857139587 0.0470023415982723236 0 0 0 0 0 0
0.0132451280951499939 -0.107298940420150757 0.00399130256846547127 0 0 0 0 0 0
0.0189108923077583313 -0.0906885415315628052 0.0308481007814407349 0 0 0 0 0 0
0.0302688553929328918 -0.0680436119437217712 0.0322010330855846405 0 0 0 0 0 0
0.0175682678818702698 -0.0857887417078018188 0.0395606905221939087 0 0 0 0 0 0
0.0395150221884250641 -0.0590729676187038422 0.0275208055973052979 0 0 0 0 0 0
0.0244834013283252716 -0.0781140252947807312 0.03575105220079422 0 0 0 0 0 0
0.0449841469526290894 -0.0521948263049125671 0.0243751313537359238 0 0 0 0 0 0
0.035376034677028656 -0.0556124076247215271 0.0336664095520973206 0 0 0 0 0 0
0.0428237132728099823 -0.0492957346141338348 0.0288989841938018799 0 0 0 0 0 0
0.0380797646939754486 -0.0410097241401672363 0.0372427664697170258 0 0 0 0 0 0
0.0422022342681884766 -0.0432073771953582764 0.0323229208588600159 0 0 0 0 0 0
0.0464156083762645721 -0.0408799014985561371 0.0274782683700323105 0 0 0 0 0 0
0.0520704761147499084 -0.0307291727513074875 0.0224979482591152191 0 0 0 0 0 0
0.0496541038155555725 -0.0187268834561109543 0.0289476960897445679 0 0 0 0 0 0
0.0523714236915111542 -0.0436924472451210022 0.0169990435242652893 0 0 0 0 0 0
0.0450481176376342773 -0.0102183884009718895 0.0342994742095470428 0 0 0 0 0 0
0.0552425496280193329 -0.0448194704949855804 0.0111179938539862633 0 0 0 0 0 0
0.0419645830988883972 -0.123453035950660706 -0.0273248106241226196 0 0 0 0 0 0
0.030896257609128952 -0.128622174263000488 -0.0186578687280416489 0 0 0 0 0 0
0.00368319684639573097 -0.0983740612864494324 -0.121322974562644958 0 0 0 0 0 0
0.078427538275718689 0.00460410397499799728 -0.060721375048160553 0 0 0 0 0 0
0.0672320425510406494 -0.0383045002818107605 -0.041363053023815155 0 0 0 0 0 0
0.0121696125715970993 -0.0881223827600479126 0.0416741333901882172 0 0 0 0 0 0
0.0489123277366161346 -0.0699337869882583618 0.00413890555500984192 0 0 0 0 0 0
0.00270989071577787399 -0.00737608922645449638 0.0560147687792778015 0 0 0 0 0 0
0.0550239011645317078 -0.0641542673110961914 -0.00488886097446084023 0 0 0 0 0 0
0.0226797666400671005 -0.0932717174291610718 0.0195096470415592194 0 0 0 0 0 0
0.0517130307853221893 -0.118439510464668274 -0.0381072722375392914 0 0 0 0 0 0
0.0134400632232427597 -0.0678154528141021729 0.0449875257909297943 0 0 0 0 0 0
0.0559745058417320251 -0.0257642120122909546 0.0176001396030187607 0 0 0 0 0 0
0.0571238994598388672 -0.015042516402900219 0.0188157744705677032 0 0 0 0 0 0
0.0537458024919033051 -0.013659096322953701 0.0243297219276428223 0 0 0 0 0 0
0.0147981774061918259 -0.0472998917102813721 0.0517143867909908295 0 0 0 0 0 0
0.0230228602886199951 0.0269600562751293182 0.0336598604917526245 0 0 0 0 0 0
0.0339563451707363129 -0.0761300325393676758 -0.108369991183280945 0 0 0 0 0 0
0.0210258569568395615 0.0257768593728542328 0.0327105820178985596 0 0 0 0 0 0
0.0185374822467565536 0.0240289978682994843 0.0321513786911964417 0 0 0 0 0 0
0.0506117865443229675 -0.0991205275058746338 -0.0326931700110435486 0 0 0 0 0 0
0.079866752028465271 0.0158375557512044907 -0.0833505615592002869 0 0 0 0 0 0
0.00881596840918064117 -0.100588381290435791 0.0171544067561626434 0 0 0 0 0 0
-0.000720062758773565292 -0.0820246264338493347 0.04868345707654953 0 0 0 0 0 0
0.00985069572925567627 -0.104867547750473022 0.00871966686099767685 0 0 0 0 0 0
0.00603677332401275635 -0.111178033053874969 0.0042741457000374794 0 0 0 0 0 0
0.00238156155683100224 -0.0983047112822532654 0.0271469410508871078 0 0 0 0 0 0
0.0779213756322860718 -0.0171889066696166992 -0.0622080676257610321 0 0 0 0 0 0
0.0804704129695892334 0.0132189914584159851 -0.0557904765009880066 0 0 0 0 0 0
0.0110115110874176025 -0.0418290756642818451 0.0530599728226661682 0 0 0 0 0 0
0.0206536836922168732 0.0227265264838933945 0.0299273021519184113 0 0 0 0 0 0
0.0211524926126003265 0.0218604803085327148 0.0323179289698600769 0 0 0 0 0 0
-4.82414252473972738e-05 0.0160226784646511078 0.0571969859302043915 0 0 0 0 0 0
0.00618205172941088676 0.00766281737014651299 0.0532383285462856293 0 0 0 0 0 0
0.00641748635098338127 0.0292171984910964966 0.0403821170330047607 0 0 0 0 0 0
0.00497032608836889267 0.0193525664508342743 0.0436888597905635834 0 0 0 0 0 0
0.0171800404787063599 0.140455827116966248 -0.0596687160432338715 0 0 0 0 0 0
0.0601153038442134857 -0.0333516597747802734 0.00539038609713315964 0 0 0 0 0 0
0.034102272242307663 0.0193293318152427673 0.0338434427976608276 0 0 0 0 0 0
0.0853404328227043152 0.0555565506219863892 -0.0565627738833427429 0 0 0 0 0 0
0.0921092629432678223 -0.000827425625175237656 -0.0746744275093078613 0 0 0 0 0 0
0.0257890354841947556 0.027585253119468689 0.0358832590281963348 0 0 0 0 0 0
0.00639371853321790695 0.0242713894695043564 0.0370843671262264252 0 0 0 0 0 0
0.0196683891117572784 -0.0439068339765071869 0.0414510443806648254 0 0 0 0 0 0
0.0406819134950637817 -0.0714758113026618958 -0.102009974420070648 0 0 0 0 0 0
0.0748263746500015259 -0.0347461998462677002 -0.0462679527699947357 0 0 0 0 0 0
0.051946934312582016 -0.142539516091346741 -0.125035524368286133 0 0 0 0 0 0
0.0345004498958587646 0.0279082581400871277 0.0359358415007591248 0 0 0 0 0 0
0.0528535656630992889 0.0436573736369609833 -0.1465635746717453 0 0 0 0 0 0
0.0620177164673805237 -0.134066179394721985 -0.0683003664016723633 0 0 0 0 0 0
0.0393611565232276917 -0.138471677899360657 -0.026079198345541954 0 0 0 0 0 0
0.00789201539009809494 -0.0766081064939498901 0.0485534891486167908 0 0 0 0 0 0
0.0157147552818059921 -0.0755686387419700623 0.044493257999420166 0 0 0 0 0 0
-9.17979050427675247e-05 -0.0949269384145736694 0.0359334424138069153 0 0 0 0 0 0
0.0283544659614562988 -0.0920918434858322144 0.0121711473912000656 0 0 0 0 0 0
0.0518695227801799774 -0.0756798312067985535 -0.0159442424774169922 0 0 0 0 0 0
0.00895143114030361176 -0.0975280404090881348 0.0257793404161930084 0 0 0 0 0 0
0.0171708930283784866 -0.0809149295091629028 0.0427407883107662201 0 0 0 0 0 0
-0.000307774724205955863 -0.0911356359720230103 0.0418616607785224915 0 0 0 0 0 0
0.0591956675052642822 -0.0211277827620506287 0.0126444948837161064 0 0 0 0 0 0
0.0319314226508140564 -0.0728044435381889343 0.0284263119101524353 0 0 0 0 0 0
0.0437329337000846863 -0.0601364597678184509 0.0213406980037689209 0 0 0 0 0 0
0.0227709375321865082 0.0281067155301570892 0.0314836017787456512 0 0 0 0 0 0
0.0222400333732366562 -0.0993583500385284424 0.00674428418278694153 0 0 0 0 0 0
0.0126526644453406334 -0.0453177839517593384 0.0466295890510082245 0 0 0 0 0 0
0.0203412584960460663 -0.0425065532326698303 0.0439317785203456879 0 0 0 0 0 0
0.0565930753946304321 0.0372412353754043579 0.0126300882548093796 0 0 0 0 0 0
0.036530129611492157 -0.0754779130220413208 0.0209764298051595688 0 0 0 0 0 0
0.0417860522866249084 -0.0742662250995635986 0.0138170979917049408 0 0 0 0 0 0
0.018845580518245697 -0.136360615491867065 -0.128584682941436768 0 0 0 0 0 0
-0.0297951307147741318 -0.138545691967010498 -0.019543185830116272 0 0 0 0 0 0
-0.0587837919592857361 -0.120734535157680511 -0.0766616612672805786 0 0 0 0 0 0
-0.0544236116111278534 -0.118286624550819397 -0.0914824753999710083 0 0 0 0 0 0
-0.03663673996925354 -0.117857620120048523 -0.112877011299133301 0 0 0 0 0 0
-0.0511005334556102753 -0.130505502223968506 -0.0375660434365272522 0 0 0 0 0 0
-0.0573557727038860321 -0.126025184988975525 -0.0511438697576522827 0 0 0 0 0 0
-0.0445951297879219055 -0.121655330061912537 -0.108622193336486816 0 0 0 0 0 0
-0.0252439342439174652 -0.123476885259151459 -0.120130404829978943 0 0 0 0 0 0
-0.0154051100835204124 -0.166350007057189941 -0.0169675666838884354 0 0 0 0 0 0
-0.0686788260936737061 -0.173369288444519043 -0.0492037497460842133 0 0 0 0 0 0
-0.0529617480933666229 -0.178378626704216003 -0.0348991379141807556 0 0 0 0 0 0
-0.103925168514251709 -0.160531803965568542 -0.10225522518157959 0 0 0 0 0 0
-0.0631054341793060303 -0.182399481534957886 -0.151632726192474365 0 0 0 0 0 0
-0.0723034292459487915 -0.147770613431930542 -0.115979723632335663 0 0 0 0 0 0
-0.0496579520404338837 -0.157087013125419617 -0.133658885955810547 0 0 0 0 0 0
-0.0847049802541732788 -0.150211840867996216 -0.101066499948501587 0 0 0 0 0 0
-0.08235149085521698 -0.154686138033866882 -0.0817232057452201843 0 0 0 0 0 0
-0.068594418466091156 -0.160634338855743408 -0.059559360146522522 0 0 0 0 0 0
-0.0660859867930412292 -0.15220266580581665 -0.125264391303062439 0 0 0 0 0 0
-0.0508159324526786804 -0.129291042685508728 -0.109298102557659149 0 0 0 0 0 0
-0.0361469611525535583 -0.136195704340934753 -0.122382193803787231 0 0 0 0 0 0
-0.00603800220414996147 -0.129340469837188721 -0.127121791243553162 0 0 0 0 0 0
-0.0315544754266738892 -0.161108464002609253 -0.138992220163345337 0 0 0 0 0 0
-0.0209016352891921997 -0.136843204498291016 -0.127575874328613281 0 0 0 0 0 0
-0.0869314670562744141 -0.161699175834655762 -0.0763186141848564148 0 0 0 0 0 0
-0.0601351223886013031 -0.141390144824981689 -0.0575487315654754639 0 0 0 0 0 0
-0.092023216187953949 -0.154646366834640503 -0.102770954370498657 0 0 0 0 0 0
-0.0279234945774078369 -0.185754567384719849 -0.150777101516723633 0 0 0 0 0 0
-0.0149112483486533165 -0.183422848582267761 -0.148948252201080322 0 0 0 0 0 0
-0.0572161003947257996 -0.164795860648155212 -0.044437061995267868 0 0 0 0 0 0
-0.0490548312664031982 -0.167249917984008789 -0.0358942113816738129 0 0 0 0 0 0
-0.0345982275903224945 -0.170937776565551758 -0.0251388605684041977 0 0 0 0 0 0
-0.0589415654540061951 -0.129485517740249634 -0.0973410904407501221 0 0 0 0 0 0
-0.0638489946722984314 -0.134165734052658081 -0.0899877548217773438 0 0 0 0 0 0
-0.0530033335089683533 -0.144736692309379578 -0.041749514639377594 0 0 0 0 0 0
-0.0274866484105587006 -0.15380743145942688 -0.0199837572872638702 0 0 0 0 0 0
-0.0330731123685836792 -0.160056799650192261 -0.0237792190164327621 0 0 0 0 0 0
-0.0186001434922218323 -0.151959329843521118 -0.0158185474574565887 0 0 0 0 0 0
-0.0316270850598812103 -0.185022741556167603 -0.0183785092085599899 0 0 0 0 0 0
-0.0799189507961273193 -0.171905010938644409 -0.0587833672761917114 0 0 0 0 0 0
-0.0638509243726730347 -0.137677058577537537 -0.0743904858827590942 0 0 0 0 0 0
-0.0599319189786911011 -0.126567244529724121 -0.0677226930856704712 0 0 0 0 0 0
-0.0523568913340568542 -0.153023451566696167 -0.0409575104713439941 0 0 0 0 0 0
-0.0614338330924510956 -0.150323420763015747 -0.0560738071799278259 0 0 0 0 0 0
-0.0671934932470321655 -0.146126329898834229 -0.0721120387315750122 0 0 0 0 0 0
-0.0732249394059181213 -0.142909198999404907 -0.0958602428436279297 0 0 0 0 0 0
-0.0538160614669322968 -0.144483268260955811 -0.122472867369651794 0 0 0 0 0 0
-0.042468734085559845 -0.143250018358230591 -0.125105038285255432 0 0 0 0 0 0
-0.0215016230940818787 -0.145657539367675781 -0.131753027439117432 0 0 0 0 0 0
-0.0423539206385612488 -0.161226466298103333 -0.0307358317077159882 0 0 0 0 0 0
-0.0425065606832504272 -0.144253939390182495 -0.0291608832776546478 0 0 0 0 0 0
-0.0412662699818611145 -0.134021863341331482 -0.0270621888339519501 0 0 0 0 0 0
-0.0803243741393089294 -0.176419839262962341 -0.144753187894821167 0 0 0 0 0 0
-0.0667578503489494324 -0.141845077276229858 -0.111617490649223328 0 0 0 0 0 0
-0.10023285448551178 -0.171410679817199707 -0.0726493597030639648 0 0 0 0 0 0
-0.07260141521692276 -0.187129423022270203 -0.0346547141671180725 0 0 0 0 0 0
-0.0533630475401878357 -0.19077591598033905 -0.0200508497655391693 0 0 0 0 0 0
-0.0342414490878582001 -0.193336069583892822 -0.010239308699965477 0 0 0 0 0 0
-0.0884779021143913269 -0.180838033556938171 -0.0527177564799785614 0 0 0 0 0 0
-0.0519708395004272461 -0.184557348489761353 -0.152473807334899902 0 0 0 0 0 0
-0.0916089043021202087 -0.168718919157981873 -0.133741945028305054 0 0 0 0 0 0
-0.0761932283639907837 -0.167481109499931335 -0.137254148721694946 0 0 0 0 0 0
-0.0634831637144088745 -0.174057960510253906 -0.14563867449760437 0 0 0 0 0 0
-0.0952831432223320007 -0.162774622440338135 -0.122868292033672333 0 0 0 0 0 0
-0.0825644731521606445 -0.155990034341812134 -0.121316000819206238 0 0 0 0 0 0
-0.0656350702047348022 -0.159643009305000305 -0.132441997528076172 0 0 0 0 0 0
-0.054194372147321701 -0.163029521703720093 -0.137906596064567566 0 0 0 0 0 0
-0.0281289629638195038 -0.169010460376739502 -0.14349740743637085 0 0 0 0 0 0
-0.0150740519165992737 -0.170001119375228882 -0.144384324550628662 0 0 0 0 0 0
-0.0176501795649528503 -0.142170175909996033 -0.0136889088898897171 0 0 0 0 0 0
-0.00667627528309822083 -0.164062008261680603 -0.0153901856392621994 0 0 0 0 0 0
-0.0165058709681034088 -0.186799213290214539 -0.0141668021678924561 0 0 0 0 0 0
-0.0222771279513835907 -0.192147478461265564 -0.0102185551077127457 0 0 0 0 0 0
-0.0157802179455757141 -0.176926180720329285 -0.0172816291451454163 0 0 0 0 0 0
-0.00236778776161372662 -0.158232808113098145 -0.0137161388993263245 0 0 0 0 0 0
-0.0061524026095867157 -0.144773587584495544 -0.0103325936943292618 0 0 0 0 0 0
-0.00539112742990255356 -0.113700971007347107 -0.122451268136501312 0 0 0 0 0 0
-0.00299546006135642529 -0.189229279756546021 -0.0148449931293725967 0 0 0 0 0 0
-0.00304693868383765221 -0.199045896530151367 -0.00781635381281375885 0 0 0 0 0 0
-0.00285177002660930157 -0.178594872355461121 -0.0174660906195640564 0 0 0 0 0 0
-0.0133672570809721947 -0.162025570869445801 -0.140686675906181335 0 0 0 0 0 0
-0.0113931624218821526 -0.149076983332633972 -0.13534700870513916 0 0 0 0 0 0
-0.0234738513827323914 -0.10799022763967514 -0.117272846400737762 0 0 0 0 0 0
-0.0317001007497310638 -0.108739100396633148 -0.113438844680786133 0 0 0 0 0 0
-0.04259486123919487 -0.108546555042266846 -0.104144111275672913 0 0 0 0 0 0
-0.0508122667670249939 -0.11017262190580368 -0.0923053547739982605 0 0 0 0 0 0
-0.0580580048263072968 -0.113387934863567352 -0.0744751095771789551 0 0 0 0 0 0
-0.059015326201915741 -0.116444408893585205 -0.059107702225446701 0 0 0 0 0 0
-0.0558396279811859131 -0.120009824633598328 -0.0452082566916942596 0 0 0 0 0 0
-0.0483629703521728516 -0.124470308423042297 -0.0335206054151058197 0 0 0 0 0 0
-0.041265290230512619 -0.124008625745773315 -0.0264098793268203735 0 0 0 0 0 0
-0.0292731281369924545 -0.128903597593307495 -0.0179250724613666534 0 0 0 0 0 0
-0.0177048612385988235 -0.133368536829948425 -0.0114282248541712761 0 0 0 0 0 0
0.093822479248046875 -0.159247070550918579 -0.0855834707617759705 0 0 0 0 0 0
-0.00988032203167676926 -0.104585945606231689 -0.120805516839027405 0 0 0 0 0 0
0.0545594394207000732 0.122911065816879272 -0.0447824746370315552 0 0 0 0 0 0
-0.0760843977332115173 -0.0193264074623584747 -0.0579459816217422485 0 0 0 0 0 0
0.0805337876081466675 0.0162168592214584351 -0.0690318644046783447 0 0 0 0 0 0
0.076516471803188324 0.00917663425207138062 -0.0476079955697059631 0 0 0 0 0 0
-0.0791708528995513916 0.00458842795342206955 -0.0683253034949302673 0 0 0 0 0 0
0.0408093743026256561 0.0210723336786031723 0.0293348338454961777 0 0 0 0 0 0
0.076032586395740509 -0.00435417890548706055 -0.0656292065978050232 0 0 0 0 0 0
0.0501812361180782318 -0.0570065677165985107 0.013577677309513092 0 0 0 0 0 0
0.0438338927924633026 0.021937590092420578 0.0265892818570137024 0 0 0 0 0 0
0.077879689633846283 0.00775024387985467911 -0.055516611784696579 0 0 0 0 0 0
0.0606720112264156342 -0.073547758162021637 -0.0549102649092674255 0 0 0 0 0 0
-0.013287808746099472 -0.00889166537672281265 0.0542907044291496277 0 0 0 0 0 0
-0.0131633495911955833 -0.00729031208902597427 0.0547987222671508789 0 0 0 0 0 0
-0.0119697116315364838 -0.00955751258879899979 0.0549587830901145935 0 0 0 0 0 0
-0.0706164464354515076 -0.0455944500863552094 -0.0258782282471656799 0 0 0 0 0 0
-0.0662938356399536133 -0.0556230172514915466 -0.0177895650267601013 0 0 0 0 0 0
-0.0603483095765113831 -0.0644383877515792847 -0.00888947583734989166 0 0 0 0 0 0
-0.0545160695910453796 -0.0703264921903610229 0.000676047231536358595 0 0 0 0 0 0
-0.0338189303874969482 -0.0841916352510452271 0.0258200317621231079 0 0 0 0 0 0
-0.0271108206361532211 -0.0872557684779167175 0.0339901149272918701 0 0 0 0 0 0
-0.0170554779469966888 -0.0872155055403709412 0.0432881824672222137 0 0 0 0 0 0
-0.00730907171964645386 -0.0869326591491699219 0.0458686947822570801 0 0 0 0 0 0
-0.0103091895580291748 -0.0788835436105728149 0.0488974675536155701 0 0 0 0 0 0
-0.0190333537757396698 -0.0788017585873603821 0.0457219928503036499 0 0 0 0 0 0
-0.0265403538942337036 -0.0775098800659179688 0.0401844754815101624 0 0 0 0 0 0
-0.0338458716869354248 -0.0740969851613044739 0.0324490629136562347 0 0 0 0 0 0
-0.041282951831817627 -0.0682897865772247314 0.0259180366992950439 0 0 0 0 0 0
-0.00707571953535079956 -0.0912641733884811401 0.041632331907749176 0 0 0 0 0 0
-0.0162345394492149353 -0.0914889276027679443 0.0385855361819267273 0 0 0 0 0 0
-0.0237867794930934906 -0.090573534369468689 0.0331646464765071869 0 0 0 0 0 0
-0.0303151067346334457 -0.0883144736289978027 0.0259081572294235229 0 0 0 0 0 0
-0.0392468348145484924 -0.0839761421084403992 0.0153497904539108276 0 0 0 0 0 0
-0.0470046550035476685 -0.0791824087500572205 0.00622476823627948761 0 0 0 0 0 0
-0.0528706982731819153 -0.0747881978750228882 -0.0041790250688791275 0 0 0 0 0 0
-0.0596932992339134216 -0.0679135173559188843 -0.0146911144256591797 0 0 0 0 0 0
-0.0663685351610183716 -0.0580363571643829346 -0.0246342569589614868 0 0 0 0 0 0
-0.0708574354648590088 -0.0468510985374450684 -0.0330389700829982758 0 0 0 0 0 0
-0.0723904073238372803 -0.0406991243362426758 -0.0374444946646690369 0 0 0 0 0 0
-0.016901923343539238 -0.0694639980792999268 0.0464091263711452484 0 0 0 0 0 0
-0.0216747354716062546 -0.068696931004524231 0.0431502759456634521 0 0 0 0 0 0
-0.0285862535238265991 -0.0661507323384284973 0.0380941182374954224 0 0 0 0 0 0
-0.0367215275764465332 -0.0603554323315620422 0.0330516248941421509 0 0 0 0 0 0
-0.0431501679122447968 -0.0508123151957988739 0.0327139832079410553 0 0 0 0 0 0
-0.0431225746870040894 -0.0367071591317653656 0.0376203432679176331 0 0 0 0 0 0
-0.0497956201434135437 -0.0350753851234912872 0.0314258858561515808 0 0 0 0 0 0
-0.05362701416015625 -0.0311509557068347931 0.0274373218417167664 0 0 0 0 0 0
-0.0410597622394561768 -0.0312103666365146637 0.0398989617824554443 0 0 0 0 0 0
-0.047983165830373764 -0.027095552533864975 0.0350171737372875214 0 0 0 0 0 0
-0.0513525903224945068 -0.0220530834048986435 0.0320891439914703369 0 0 0 0 0 0
-0.0063553578220307827 -0.094955146312713623 0.035665564239025116 0 0 0 0 0 0
-0.0146876536309719086 -0.0948639661073684692 0.0327363759279251099 0 0 0 0 0 0
-0.0215170271694660187 -0.0939423143863677979 0.0278851315379142761 0 0 0 0 0 0
-0.0272442158311605453 -0.0924388915300369263 0.0216954872012138367 0 0 0 0 0 0
-0.0323818773031234741 -0.0909320712089538574 0.0145729361101984978 0 0 0 0 0 0
-0.040322914719581604 -0.0877620428800582886 0.00375843001529574394 0 0 0 0 0 0
-0.0474142841994762421 -0.0831432491540908813 -0.00647488515824079514 0 0 0 0 0 0
-0.0555676184594631195 -0.0759083554148674011 -0.0183822736144065857 0 0 0 0 0 0
-0.0637350678443908691 -0.0649059638381004333 -0.0298132207244634628 0 0 0 0 0 0
-0.0687284320592880249 -0.0525488369166851044 -0.0392379909753799438 0 0 0 0 0 0
-0.0717672929167747498 -0.0386955477297306061 -0.0465705841779708862 0 0 0 0 0 0
-0.0666051730513572693 -0.0566851496696472168 -0.0440110713243484497 0 0 0 0 0 0
-0.0614243671298027039 -0.0711612999439239502 -0.0337645299732685089 0 0 0 0 0 0
-0.0512518212199211121 -0.0856448933482170105 -0.0218716450035572052 0 0 0 0 0 0
-0.0405434742569923401 -0.0939619168639183044 -0.00961137376725673676 0 0 0 0 0 0
-0.0310676451772451401 -0.0965179651975631714 0.00268758926540613174 0 0 0 0 0 0
-0.0263178255409002304 -0.0970038026571273804 0.00990642793476581573 0 0 0 0 0 0
-0.0223778858780860901 -0.09709969162940979 0.0162796974182128906 0 0 0 0 0 0
-0.0182520728558301926 -0.0972759649157524109 0.0217647310346364975 0 0 0 0 0 0
-0.0142696350812911987 -0.0976977646350860596 0.0249258615076541901 0 0 0 0 0 0
-0.00771966017782688141 -0.098340153694152832 0.0267794635146856308 0 0 0 0 0 0
-0.00368786766193807125 -0.104065887629985809 0.0130511671304702759 0 0 0 0 0 0
-0.0130529087036848068 -0.100583314895629883 0.0164896566420793533 0 0 0 0 0 0
-0.0145929381251335144 -0.10238705575466156 0.0107791004702448845 0 0 0 0 0 0
-0.00321885012090206146 -0.106351494789123535 0.009230845607817173 0 0 0 0 0 0
-0.017450256273150444 -0.104079052805900574 0.00553624518215656281 0 0 0 0 0 0
-0.00341080175712704659 -0.110372625291347504 0.00534491799771785736 0 0 0 0 0 0
-0.0202761553227901459 -0.107075884938240051 -0.00035731386742554605 0 0 0 0 0 0
-0.0106064304709434509 -0.0838606581091880798 0.0472337827086448669 0 0 0 0 0 0
-0.019892500713467598 -0.083986036479473114 0.0439444184303283691 0 0 0 0 0 0
-0.0275437384843826294 -0.0826421529054641724 0.0378247126936912537 0 0 0 0 0 0
-0.0346835888922214508 -0.0792088955640792847 0.0292771365493535995 0 0 0 0 0 0
-0.0474031418561935425 -0.0599903091788291931 0.0234134253114461899 0 0 0 0 0 0
-0.0549837574362754822 -0.0484458506107330322 0.0187683142721652985 0 0 0 0 0 0
-0.0430352799594402313 -0.0597674958407878876 0.0284046493470668793 0 0 0 0 0 0
-0.0508477352559566498 -0.050243079662322998 0.0245369486510753632 0 0 0 0 0 0
-0.0477428808808326721 -0.0443831458687782288 0.0311882998794317245 0 0 0 0 0 0
-0.0503257885575294495 -0.0441282354295253754 0.0280350856482982635 0 0 0 0 0 0
-0.0543546080589294434 -0.0417403355240821838 0.0228754244744777679 0 0 0 0 0 0
-0.0573211386799812317 -0.0503782890737056732 0.0133568886667490005 0 0 0 0 0 0
-0.0585179254412651062 -0.0373925976455211639 0.0173401851207017899 0 0 0 0 0 0
-0.057359006255865097 -0.0255157705396413803 0.0233205892145633698 0 0 0 0 0 0
-0.0542894303798675537 -0.0152399530634284019 0.0290717184543609619 0 0 0 0 0 0
-0.0621034502983093262 -0.0454388819634914398 0.00612091226503252983 0 0 0 0 0 0
-0.0624511316418647766 -0.0320977345108985901 0.0118602681905031204 0 0 0 0 0 0
-0.0609059780836105347 -0.019075397402048111 0.0190680474042892456 0 0 0 0 0 0
-0.0644669458270072937 -0.0152610642835497856 0.0136001808568835258 0 0 0 0 0 0
-0.0657297074794769287 -0.0271714087575674057 0.00646994542330503464 0 0 0 0 0 0
-0.0658795088529586792 -0.0398904532194137573 -0.00013153969484847039 0 0 0 0 0 0
-0.0394934415817260742 -0.0736502036452293396 0.0252725984901189804 0 0 0 0 0 0
-0.051166631281375885 -0.060985863208770752 0.0172580387443304062 0 0 0 0 0 0
-0.0389927253127098083 -0.0812224149703979492 0.0202007964253425598 0 0 0 0 0 0
-0.0479965582489967346 -0.0748502686619758606 0.0107221268117427826 0 0 0 0 0 0
-0.0569794885814189911 -0.0576705709099769592 0.0091884024441242218 0 0 0 0 0 0
-0.0592402219772338867 -0.0589833483099937439 0.00300001446157693863 0 0 0 0 0 0
-0.0642543584108352661 -0.052665315568447113 -0.00494816992431879044 0 0 0 0 0 0
-0.0682444199919700623 -0.0450677797198295593 -0.0119212260469794273 0 0 0 0 0 0
-0.067083016037940979 -0.0114402798935770988 0.00849356316030025482 0 0 0 0 0 0
-0.068162083625793457 -0.02222449891269207 0.00133498385548591614 0 0 0 0 0 0
-0.0687053054571151733 -0.0338000133633613586 -0.00595482811331748962 0 0 0 0 0 0
-0.0692203044891357422 -0.00724787823855876923 0.00308697530999779701 0 0 0 0 0 0
-0.0712753012776374817 -0.000512571888975799084 -0.00324688991531729698 0 0 0 0 0 0
-0.0726102888584136963 -0.00949976127594709396 -0.0118370233103632927 0 0 0 0 0 0
-0.0702055245637893677 -0.0167894214391708374 -0.00440233852714300156 0 0 0 0 0 0
-0.0711760148406028748 -0.0364755913615226746 -0.0190581437200307846 0 0 0 0 0 0
-0.070842258632183075 -0.0273003093898296356 -0.0122814178466796875 0 0 0 0 0 0
-0.0729803666472434998 -0.0360910966992378235 -0.0326204150915145874 0 0 0 0 0 0
-0.0732995867729187012 -0.0278363432735204697 -0.0269385538995265961 0 0 0 0 0 0
-0.0730422437191009521 -0.0159675143659114838 -0.0174361243844032288 0 0 0 0 0 0
-0.0752578005194664001 -0.0218768715858459473 -0.0418054424226284027 0 0 0 0 0 0
-0.0741301104426383972 -0.0302695482969284058 -0.0440392009913921356 0 0 0 0 0 0
-0.00999971851706504822 -0.0739343538880348206 0.04959898442029953 0 0 0 0 0 0
-0.0180165097117424011 -0.0738403052091598511 0.0463507771492004395 0 0 0 0 0 0
-0.0252342559397220612 -0.0723869577050209045 0.041135154664516449 0 0 0 0 0 0
-0.032217707484960556 -0.0690324455499649048 0.0348532348871231079 0 0 0 0 0 0
-0.0390577353537082672 -0.0641610026359558105 0.0300196260213851929 0 0 0 0 0 0
-0.0466682612895965576 -0.0524873249232769012 0.0289169102907180786 0 0 0 0 0 0
-0.0467628985643386841 -0.0344047173857688904 0.034885019063949585 0 0 0 0 0 0
-0.0446445271372795105 -0.0276481024920940399 0.0376962274312973022 0 0 0 0 0 0
-0.0403980091214179993 -0.0539022348821163177 0.0330603830516338348 0 0 0 0 0 0
-0.042831026017665863 -0.0423422306776046753 0.0360554605722427368 0 0 0 0 0 0
-0.00967589765787124634 -0.0695284456014633179 0.0496316850185394287 0 0 0 0 0 0
-0.00760952569544315338 -0.114229187369346619 0.00205774535425007343 0 0 0 0 0 0
0.0704191029071807861 -0.0272382088005542755 -0.0600263625383377075 0 0 0 0 0 0
0.0197327118366956711 -0.0391024015843868256 0.0489913448691368103 0 0 0 0 0 0
0.0818015784025192261 0.0149651719257235527 -0.0668248161673545837 0 0 0 0 0 0
0.0112870205193758011 -0.0401207618415355682 0.0550434216856956482 0 0 0 0 0 0
0.0158580224961042404 -0.0347122699022293091 0.0540883466601371765 0 0 0 0 0 0
0.00537497689947485924 -0.063236430287361145 0.0494396239519119263 0 0 0 0 0 0
0.0103201726451516151 0.000213923281989991665 0.0497108101844787598 0 0 0 0 0 0
0.0191528480499982834 -0.0406620502471923828 0.0479089021682739258 0 0 0 0 0 0
0.0110762733966112137 -0.0377511456608772278 0.0565154775977134705 0 0 0 0 0 0
0.0520288161933422089 0.0116300079971551895 0.0203252267092466354 0 0 0 0 0 0
-0.00128817267250269651 -0.072276584804058075 0.0506408177316188812 0 0 0 0 0 0
0.0234822295606136322 -0.0431886091828346252 0.0422823093831539154 0 0 0 0 0 0
0.0280160307884216309 -0.0453599020838737488 0.040057748556137085 0 0 0 0 0 0
0.0838372334837913513 0.0114734163507819176 -0.0710225999355316162 0 0 0 0 0 0
0.0761575326323509216 -0.00405898410826921463 -0.0619868934154510498 0 0 0 0 0 0
0.0882029086351394653 0.0074332505464553833 -0.0660946071147918701 0 0 0 0 0 0
0.0409877263009548187 0.0221053734421730042 0.0266752690076828003 0 0 0 0 0 0
0.0840454697608947754 -0.0159850716590881348 -0.0707259029150009155 0 0 0 0 0 0
0.0858548283576965332 -0.00691533554345369339 -0.073456399142742157 0 0 0 0 0 0
0.0819303989410400391 0.0342898443341255188 -0.0538291335105895996 0 0 0 0 0 0
0.00468051107600331306 -0.000589400238823145628 0.0657560229301452637 0 0 0 0 0 0
0.0071680387482047081 -0.00261270604096353054 0.0621465258300304413 0 0 0 0 0 0
0.0421529971063137054 0.026916850358247757 0.0324018113315105438 0 0 0 0 0 0
0.0231538712978363037 0.0208636000752449036 0.0306862406432628632 0 0 0 0 0 0
0.0813435167074203491 0.0163653790950775146 -0.065870240330696106 0 0 0 0 0 0
0.0850078091025352478 -0.0156018733978271484 -0.0713383853435516357 0 0 0 0 0 0
0.08570852130651474 -0.0168705787509679794 -0.0718910396099090576 0 0 0 0 0 0
0.0751240998506546021 -0.0303429272025823593 -0.0577713847160339355 0 0 0 0 0 0
0.00420601200312376022 -0.0502732470631599426 0.0596984736621379852 0 0 0 0 0 0
0.0824794769287109375 -0.0034709232859313488 -0.0728449597954750061 0 0 0 0 0 0
0.0113754048943519592 -0.00528182601556181908 0.0510150417685508728 0 0 0 0 0 0
8.6936168372631073e-05 0.00566843245178461075 0.0660062879323959351 0 0 0 0 0 0
0.0767992660403251648 -0.028765995055437088 -0.0602582544088363647 0 0 0 0 0 0
0.0574260801076889038 0.0922986492514610291 -0.00978596042841672897 0 0 0 0 0 0
0.0184660311788320541 -0.0416546724736690521 0.0467370674014091492 0 0 0 0 0 0
0.0120103992521762848 -0.0425379350781440735 0.0515790693461894989 0 0 0 0 0 0
0.0709818601608276367 -0.0303601380437612534 -0.054940640926361084 0 0 0 0 0 0
0.0837861150503158569 -0.0101006496697664261 -0.0723241716623306274 0 0 0 0 0 0
0.0176458060741424561 -0.0425510108470916748 0.0457699671387672424 0 0 0 0 0 0
0.0390689671039581299 0.0174923799932003021 0.0309568606317043304 0 0 0 0 0 0
0.0208942890167236328 -0.04211459681391716 0.0431646965444087982 0 0 0 0 0 0
0.074400097131729126 -0.0189461559057235718 -0.0549677275121212006 0 0 0 0 0 0
0.0889678597450256348 0.00364637700840830803 -0.0680008083581924438 0 0 0 0 0 0
0.0546492151916027069 0.0289459526538848877 0.0187098123133182526 0 0 0 0 0 0
0.0832799375057220459 -0.0199535824358463287 -0.0688201561570167542 0 0 0 0 0 0
0.0835408717393875122 0.0145704029127955437 -0.0693046674132347107 0 0 0 0 0 0
0.0423110872507095337 0.0271305926144123077 0.0325975492596626282 0 0 0 0 0 0
-0.0684457719326019287 -0.0473170280456542969 -0.04903402179479599 0 0 0 0 0 0
-0.0663219243288040161 -0.0478610768914222717 -0.0611203424632549286 0 0 0 0 0 0
