ply
format ascii 1.0
element vertex 602
property float x
property float y
property float z
property float nx
property float ny
property float nz
property uchar red
property uchar green
property uchar blue
end_header
-0.0698050782084465027 -0.0211453195661306381 -0.0757234096527099609 0 0 0 0 0 0
-0.0705841630697250366 -0.00261649279855191708 -0.0793563127517700195 0 0 0 0 0 0
0.0866638943552970886 0.014641481451690197 -0.0699074789881706238 0 0 0 0 0 0
0.0812405422329902649 -0.0207201018929481506 -0.0617654100060462952 0 0 0 0 0 0
-0.0563514381647109985 -0.0117679033428430557 -0.076175689697265625 0 0 0 0 0 0
-0.0666291415691375732 -0.0061949482187628746 -0.0758620500564575195 0 0 0 0 0 0
0.0638887733221054077 -0.0015191191341727972 -0.0593733564019203186 0 0 0 0 0 0
0.040159374475479126 0.00801367964595556259 -0.16976812481880188 0 0 0 0 0 0
0.0647356808185577393 -0.00322540360502898693 -0.0624171607196331024 0 0 0 0 0 0
0.0622051022946834564 -0.00179691868834197521 -0.0609915070235729218 0 0 0 0 0 0
0.0714796185493469238 -0.00552129838615655899 -0.0462591908872127533 0 0 0 0 0 0
0.0670006796717643738 -0.00770528148859739304 -0.0608456134796142578 0 0 0 0 0 0
0.0701797157526016235 -0.0114062298089265823 -0.0571459159255027771 0 0 0 0 0 0
0.0787630826234817505 0.0260176919400691986 -0.0615345984697341919 0 0 0 0 0 0
0.0884806364774703979 -0.0100708529353141785 -0.0688986927270889282 0 0 0 0 0 0
0.0707807838916778564 0.00136409455444663763 -0.0586597323417663574 0 0 0 0 0 0
0.0693620145320892334 -0.00625487696379423141 -0.0616317056119441986 0 0 0 0 0 0
0.0774207189679145813 0.024348018690943718 -0.0596205517649650574 0 0 0 0 0 0
0.0642217099666595459 -0.000401904428144916892 -0.0596901699900627136 0 0 0 0 0 0
-0.064097188413143158 -0.0143337426707148552 -0.0782041102647781372 0 0 0 0 0 0
0.0670200586318969727 -0.0048905625008046627 -0.0573162846267223358 0 0 0 0 0 0
-0.0628075078129768372 -0.00833075493574142456 -0.0744722336530685425 0 0 0 0 0 0
0.0701856836676597595 -0.000800000911112874746 -0.0615158006548881531 0 0 0 0 0 0
0.0324046090245246887 0.0427208542823791504 0.0146488090977072716 0 0 0 0 0 0
0.0862947627902030945 0.0232964307069778442 -0.0655409917235374451 0 0 0 0 0 0
-0.0746671706438064575 0.00540503207594156265 -0.0844099372625350952 0 0 0 0 0 0
0.0876882076263427734 0.0141258900985121727 -0.0720471665263175964 0 0 0 0 0 0
-0.0755156725645065308 0.00935321953147649765 -0.0763026699423789978 0 0 0 0 0 0
-0.0739727914333343506 0.0136493025347590446 -0.104355469346046448 0 0 0 0 0 0
0.0740154087543487549 0.0118012148886919022 -0.0610991045832633972 0 0 0 0 0 0
0.0921829789876937866 -0.00925400294363498688 -0.0706289410591125488 0 0 0 0 0 0
-0.0558615438640117645 -0.0122306300327181816 -0.0747059732675552368 0 0 0 0 0 0
-0.0653176158666610718 -0.00709524843841791153 -0.0764624178409576416 0 0 0 0 0 0
0.0747751519083976746 0.00178407295607030392 -0.0526350140571594238 0 0 0 0 0 0
-0.0582673773169517517 -0.0128017663955688477 -0.076681874692440033 0 0 0 0 0 0
-0.0603401511907577515 -0.00777689879760146141 -0.0750831067562103271 0 0 0 0 0 0
-0.0802411437034606934 -0.0247879065573215485 -0.0862290859222412109 0 0 0 0 0 0
0.0104110334068536758 -0.101524829864501953 3.52853312506340444e-05 0 0 0 0 0 0
-0.0676090121269226074 -0.0207047648727893829 -0.067623727023601532 0 0 0 0 0 0
-0.069524809718132019 -0.00029164354782551527 -0.0794287025928497314 0 0 0 0 0 0
0.0900739654898643494 -0.00698983948677778244 -0.0711982697248458862 0 0 0 0 0 0
0.0752155408263206482 -0.00167714094277471304 -0.0529873594641685486 0 0 0 0 0 0
0.0610784739255905151 -0.0326697826385498047 -0.112809650599956512 0 0 0 0 0 0
-0.0797173380851745605 -0.0205461010336875916 -0.0925857275724411011 0 0 0 0 0 0
0.00912423338741064072 0.035005863755941391 0.0205788761377334595 0 0 0 0 0 0
-0.0698812901973724365 0.00313910190016031265 -0.0787317603826522827 0 0 0 0 0 0
0.0684791803359985352 -0.000351436901837587357 -0.037548016756772995 0 0 0 0 0 0
0.0730754509568214417 -0.00499322870746254921 -0.0487922504544258118 0 0 0 0 0 0
0.0783403143286705017 0.0138342678546905518 -0.064624294638633728 0 0 0 0 0 0
-0.0670918971300125122 -0.0206409599632024765 -0.0714795738458633423 0 0 0 0 0 0
0.0797441303730010986 0.0190695784986019135 -0.0612292066216468811 0 0 0 0 0 0
-0.070981249213218689 0.00378559296950697899 -0.0784413442015647888 0 0 0 0 0 0
0.0725650712847709656 -0.012262953445315361 -0.0583318397402763367 0 0 0 0 0 0
0.0815536677837371826 -0.0181331988424062729 -0.0575229935348033905 0 0 0 0 0 0
0.0708161070942878723 -0.00291230157017707825 -0.056505836546421051 0 0 0 0 0 0
-0.0698617473244667053 -0.0143130011856555939 -0.0693757012486457825 0 0 0 0 0 0
-0.0696337223052978516 0.00355807202868163586 -0.078782305121421814 0 0 0 0 0 0
-0.0795265734195709229 0.00375016685575246811 -0.0901904702186584473 0 0 0 0 0 0
-0.00712819118052721024 0.133681774139404297 -0.0324456058442592621 0 0 0 0 0 0
0.0716092586517333984 -0.00914069917052984238 -0.0466989688575267792 0 0 0 0 0 0
0.0621265098452568054 -0.00249469652771949768 -0.0602000169456005096 0 0 0 0 0 0
0.0246676616370677948 0.0839519798755645752 0.00177292502485215664 0 0 0 0 0 0
0.0689973458647727966 -0.0266954898834228516 -0.0472182780504226685 0 0 0 0 0 0
0.0772306621074676514 -0.0135098462924361229 -0.051872648298740387 0 0 0 0 0 0
-0.0699924752116203308 -0.0360523052513599396 -0.0720728486776351929 0 0 0 0 0 0
0.0860468149185180664 -0.0137290414422750473 -0.0643462836742401123 0 0 0 0 0 0
0.0672759339213371277 -0.00164637621492147446 -0.0621553175151348114 0 0 0 0 0 0
-0.0570546761155128479 -0.0154092293232679367 -0.0761475712060928345 0 0 0 0 0 0
-0.0586656481027603149 -0.00940049532800912857 -0.0739818736910820007 0 0 0 0 0 0
0.0720243901014328003 0.00254262820817530155 -0.0582448020577430725 0 0 0 0 0 0
-0.0556242577731609344 -0.0143060628324747086 -0.07462349534034729 0 0 0 0 0 0
0.0671329498291015625 -0.00973946414887905121 -0.0570038817822933197 0 0 0 0 0 0
0.0798832476139068604 -0.0115258088335394859 -0.0584511421620845795 0 0 0 0 0 0
-0.0589994005858898163 -0.0174579229205846786 -0.0737531781196594238 0 0 0 0 0 0
-0.0615005716681480408 -0.0119238188490271568 -0.0771004632115364075 0 0 0 0 0 0
0.0789996311068534851 -0.0111040603369474411 -0.0591684691607952118 0 0 0 0 0 0
0.0786935538053512573 -0.0117491669952869415 -0.0565886907279491425 0 0 0 0 0 0
0.0762606486678123474 -0.0113960355520248413 -0.0540394596755504608 0 0 0 0 0 0
0.0886348709464073181 -0.00668405322358012199 -0.0691296011209487915 0 0 0 0 0 0
-0.0683756694197654724 -0.012035248801112175 -0.0718885064125061035 0 0 0 0 0 0
0.0358127057552337646 0.0509607791900634766 0.0147282220423221588 0 0 0 0 0 0
0.0849461555480957031 0.0259222891181707382 -0.0729750916361808777 0 0 0 0 0 0
-0.0724308937788009644 -0.0206918977200984955 -0.0808092653751373291 0 0 0 0 0 0
-0.0757772549986839294 -0.0284758619964122772 -0.0851993858814239502 0 0 0 0 0 0
0.0738780200481414795 0.010114278644323349 -0.0535662248730659485 0 0 0 0 0 0
0.0748891234397888184 0.0163867808878421783 -0.0548575744032859802 0 0 0 0 0 0
-0.0766854062676429749 0.0333755426108837128 -0.110124275088310242 0 0 0 0 0 0
-0.0808698758482933044 0.00926526077091693878 -0.0987547561526298523 0 0 0 0 0 0
-0.0752464830875396729 0.0182908922433853149 -0.0849865078926086426 0 0 0 0 0 0
0.012450389564037323 0.0454954914748668671 0.0123687982559204102 0 0 0 0 0 0
-0.0774346292018890381 -0.0244491212069988251 -0.089005589485168457 0 0 0 0 0 0
-0.080509871244430542 -0.0159784257411956787 -0.0956282913684844971 0 0 0 0 0 0
0.0774221122264862061 -0.0109910648316144943 -0.057054959237575531 0 0 0 0 0 0
0.046648077666759491 0.0199925787746906281 0.0162953492254018784 0 0 0 0 0 0
0.0501992255449295044 0.0206983964890241623 0.0119938580319285393 0 0 0 0 0 0
0.0143779926002025604 -0.0140868872404098511 0.0389812439680099487 0 0 0 0 0 0
0.0357219725847244263 0.0454228632152080536 0.0103784985840320587 0 0 0 0 0 0
0.00347175030037760735 0.132689580321311951 -0.0336114205420017242 0 0 0 0 0 0
0.0679604113101959229 0.00105658581014722586 -0.0598180592060089111 0 0 0 0 0 0
0.0328674390912055969 0.0418865978717803955 0.0145146651193499565 0 0 0 0 0 0
0.0162479281425476074 -0.0173222124576568604 0.033827412873506546 0 0 0 0 0 0
0.0240817219018936157 0.00193277443759143353 0.0357963219285011292 0 0 0 0 0 0
0.0162620954215526581 -0.0156772900372743607 0.0335414707660675049 0 0 0 0 0 0
0.0450244247913360596 0.0349177494645118713 0.00752883311361074448 0 0 0 0 0 0
0.0258906558156013489 -0.0197516493499279022 0.0376162305474281311 0 0 0 0 0 0
0.0169710312038660049 0.00964409299194812775 0.0340884700417518616 0 0 0 0 0 0
0.0329806916415691376 0.0397852770984172821 0.0143153844401240349 0 0 0 0 0 0
0.0178968459367752075 -0.0164762008935213089 0.0309916771948337555 0 0 0 0 0 0
0.00801170151680707932 0.019193015992641449 0.0369338355958461761 0 0 0 0 0 0
0.0858279317617416382 0.0235209241509437561 -0.0686572492122650146 0 0 0 0 0 0
0.0803901702165603638 -0.0191248338669538498 -0.0621477961540222168 0 0 0 0 0 0
0.00354028679430484772 0.0138459987938404083 0.0415169075131416321 0 0 0 0 0 0
-0.0701685622334480286 -0.00565249752253293991 -0.0728814303874969482 0 0 0 0 0 0
-0.0727599859237670898 0.00214222259819507599 -0.0757744833827018738 0 0 0 0 0 0
0.0738484859466552734 -0.00809970870614051819 -0.0647392868995666504 0 0 0 0 0 0
0.0539623722434043884 0.039206378161907196 -0.00492001883685588837 0 0 0 0 0 0
-0.0031824982725083828 0.0219281762838363647 0.0449385121464729309 0 0 0 0 0 0
-0.0718295276165008545 0.00465117301791906357 -0.0784590393304824829 0 0 0 0 0 0
0.0705089867115020752 -0.00556899141520261765 -0.0622130036354064941 0 0 0 0 0 0
-0.0707020163536071777 -0.0267864074558019638 -0.081632368266582489 0 0 0 0 0 0
-0.000793269253335893154 0.0399666205048561096 0.0285180918872356415 0 0 0 0 0 0
-0.0759176164865493774 0.00700992997735738754 -0.0779966861009597778 0 0 0 0 0 0
-0.0765320584177970886 -0.0235946215689182281 -0.0804141014814376831 0 0 0 0 0 0
0.0868507027626037598 -0.00919938087463378906 -0.0646856054663658142 0 0 0 0 0 0
-0.0827056020498275757 0.0120919458568096161 -0.0878421887755393982 0 0 0 0 0 0
-0.0012268781429156661 0.0161674916744232178 0.0402984246611595154 0 0 0 0 0 0
-0.00324049033224582672 0.0445294640958309174 0.0280391983687877655 0 0 0 0 0 0
-0.00375217711552977562 0.0428380332887172699 0.0313434526324272156 0 0 0 0 0 0
0.0355565175414085388 0.0430618748068809509 0.0120049081742763519 0 0 0 0 0 0
0.0774868801236152649 -0.0149188917130231857 -0.0672086626291275024 0 0 0 0 0 0
0.0826547145843505859 -0.00869741570204496384 -0.0653170794248580933 0 0 0 0 0 0
0.0855918526649475098 -0.0184715688228607178 -0.0661284178495407104 0 0 0 0 0 0
0.0141687272116541862 0.0448448881506919861 0.0113969175145030022 0 0 0 0 0 0
0.00166486389935016632 0.0184845775365829468 0.0421167127788066864 0 0 0 0 0 0
0.00426785508170723915 0.0169654339551925659 0.0445683710277080536 0 0 0 0 0 0
0.0740591436624526978 -0.0106543591246008873 -0.0539923757314682007 0 0 0 0 0 0
0.000530176970642060041 -0.104154728353023529 0.00228399084880948067 0 0 0 0 0 0
-0.00566468760371208191 -0.104114644229412079 0.00164497550576925278 0 0 0 0 0 0
0.0753674209117889404 0.0152657255530357361 -0.0608861073851585388 0 0 0 0 0 0
0.0726780965924263 0.00699224695563316345 -0.0637950971722602844 0 0 0 0 0 0
0.0749378204345703125 0.00237819505855441093 -0.0557140521705150604 0 0 0 0 0 0
0.0851407870650291443 0.00115984666626900434 -0.066527441143989563 0 0 0 0 0 0
0.0714384764432907104 -0.0118603203445672989 -0.0576761960983276367 0 0 0 0 0 0
0.00111124140676110983 0.0191962160170078278 0.0487512461841106415 0 0 0 0 0 0
0.00240826769731938839 0.0217588618397712708 0.0478511862456798553 0 0 0 0 0 0
0.0164560414850711823 0.0439214259386062622 0.0162229128181934357 0 0 0 0 0 0
0.0833238065242767334 0.0262743886560201645 -0.0629276037216186523 0 0 0 0 0 0
0.00187959126196801662 -0.00841978006064891815 0.040754467248916626 0 0 0 0 0 0
0.0872935503721237183 0.000691071501933038235 -0.0678191110491752625 0 0 0 0 0 0
0.0446665994822978973 0.0743382126092910767 -0.00990514457225799561 0 0 0 0 0 0
0.0158985238522291183 0.130591213703155518 -0.113273106515407562 0 0 0 0 0 0
0.0595353543758392334 -0.0794076547026634216 -0.0603790096938610077 0 0 0 0 0 0
0.0921027511358261108 -8.22113361209630966e-05 -0.0734550431370735168 0 0 0 0 0 0
-0.00564877688884735107 0.0181066449731588364 0.043731100857257843 0 0 0 0 0 0
-0.00956282578408718109 0.0113704334944486618 0.0458155646920204163 0 0 0 0 0 0
0.00452111102640628815 0.133714422583580017 -0.0452169850468635559 0 0 0 0 0 0
0.0662848353385925293 -0.00490464223548769951 -0.061930682510137558 0 0 0 0 0 0
-0.0193611942231655121 0.0220625586807727814 0.0387079529464244843 0 0 0 0 0 0
0.072378598153591156 -0.00300893816165626049 -0.0555695593357086182 0 0 0 0 0 0
0.0336338058114051819 0.0429191738367080688 0.0136946644634008408 0 0 0 0 0 0
-0.00224120169878005981 0.135033801198005676 -0.0485275201499462128 0 0 0 0 0 0
0.00250820396468043327 -0.00576701760292053223 0.0380488038063049316 0 0 0 0 0 0
-0.019262995570898056 0.0135659538209438324 0.0394520759582519531 0 0 0 0 0 0
0.00491243600845336914 -0.00934374146163463593 0.0413884297013282776 0 0 0 0 0 0
0.00134900747798383236 -0.00954242981970310211 0.0481187254190444946 0 0 0 0 0 0
0.0075607961043715477 0.00922144390642642975 0.0374867282807826996 0 0 0 0 0 0
-0.0165918823331594467 0.0229096747934818268 0.0389891192317008972 0 0 0 0 0 0
-0.000653517432510852814 0.0100776441395282745 0.0427075028419494629 0 0 0 0 0 0
0.00173560285475105047 0.0115971369668841362 0.0404811501502990723 0 0 0 0 0 0
-0.00164091214537620544 0.0114630227908492088 0.0427605621516704559 0 0 0 0 0 0
0.00043095805449411273 0.013741660863161087 0.0420075468719005585 0 0 0 0 0 0
0.0820783600211143494 -0.0219148397445678711 -0.0555239878594875336 0 0 0 0 0 0
0.0727325081825256348 0.0034265127032995224 -0.0584312379360198975 0 0 0 0 0 0
0.0718497335910797119 0.0630383789539337158 -0.0509876571595668793 0 0 0 0 0 0
0.0734501034021377563 0.00623896066099405289 -0.0631105303764343262 0 0 0 0 0 0
0.0717533081769943237 -0.0119538186118006706 -0.0470968000590801239 0 0 0 0 0 0
0.010670514777302742 0.114136248826980591 -0.147838547825813293 0 0 0 0 0 0
0.0712686032056808472 0.00262739136815071106 -0.0596461407840251923 0 0 0 0 0 0
-0.00122143409680575132 0.0864196419715881348 0.00837689731270074844 0 0 0 0 0 0
0.0886544287204742432 0.0251146741211414337 -0.0680108964443206787 0 0 0 0 0 0
-0.00161453615874052048 0.0220330208539962769 0.0377140045166015625 0 0 0 0 0 0
0.0586111545562744141 -0.051786523312330246 -0.0396720916032791138 0 0 0 0 0 0
0.0713279694318771362 0.000465822493424639106 -0.0578943416476249695 0 0 0 0 0 0
0.0820367857813835144 0.0277372933924198151 -0.0653283372521400452 0 0 0 0 0 0
-9.92172135738655925e-05 -0.000263845548033714294 0.0504113845527172089 0 0 0 0 0 0
0.00510570872575044632 -6.19037746218964458e-05 0.0482178851962089539 0 0 0 0 0 0
-0.00936870183795690536 0.0108122304081916809 0.0455047152936458588 0 0 0 0 0 0
0.0202216114848852158 -0.0140106156468391418 0.0394629091024398804 0 0 0 0 0 0
0.077783338725566864 0.0145667120814323425 -0.0644206404685974121 0 0 0 0 0 0
0.0220983773469924927 -0.0102989096194505692 0.0393365249037742615 0 0 0 0 0 0
0.014436773955821991 -0.00447175977751612663 0.0434679016470909119 0 0 0 0 0 0
0.00916460715234279633 0.00149991677608340979 0.0439797155559062958 0 0 0 0 0 0
0.0715174674987792969 -0.00101952347904443741 -0.0571092069149017334 0 0 0 0 0 0
0.0317964851856231689 0.0419784188270568848 0.0107866376638412476 0 0 0 0 0 0
0.0753573328256607056 0.0048758205957710743 -0.0615893900394439697 0 0 0 0 0 0
0.0251499861478805542 -0.0093040047213435173 0.0377668887376785278 0 0 0 0 0 0
0.0262196287512779236 -0.0150229921564459801 0.037516273558139801 0 0 0 0 0 0
0.023194044828414917 -0.00490341102704405785 0.0379117727279663086 0 0 0 0 0 0
0.017010323703289032 -0.0125732999294996262 0.0410529822111129761 0 0 0 0 0 0
0.0174772441387176514 -0.00328527833335101604 0.0408217683434486389 0 0 0 0 0 0
0.0184233039617538452 -0.0138424988836050034 0.0400046855211257935 0 0 0 0 0 0
0.0165336932986974716 -0.0114778093993663788 0.0419038645923137665 0 0 0 0 0 0
0.0701408311724662781 -0.00495150592178106308 -0.0559891685843467712 0 0 0 0 0 0
0.0139031410217285156 -0.0135506074875593185 0.0401484370231628418 0 0 0 0 0 0
-0.0833137184381484985 0.0137297008186578751 -0.0894006714224815369 0 0 0 0 0 0
0.0797848924994468689 0.0237050950527191162 -0.0594882965087890625 0 0 0 0 0 0
0.0378381535410881042 0.0415517352521419525 0.0101380562409758568 0 0 0 0 0 0
0.0758617967367172241 -0.0117055382579565048 -0.0600374005734920502 0 0 0 0 0 0
0.0552335754036903381 0.0213228072971105576 0.00361224706284701824 0 0 0 0 0 0
0.0569329112768173218 0.0262573845684528351 -0.00253089703619480133 0 0 0 0 0 0
0.0750263631343841553 -0.0094322478398680687 -0.0901361703872680664 0 0 0 0 0 0
0.0149627793580293655 -0.0141930487006902695 0.0385886877775192261 0 0 0 0 0 0
0.0152439307421445847 -0.0153772709891200066 0.0365192368626594543 0 0 0 0 0 0
0.015145912766456604 -0.0147650269791483879 0.0365056879818439484 0 0 0 0 0 0
0.0152841843664646149 -0.0139601007103919983 0.0395329371094703674 0 0 0 0 0 0
0.0244279708713293076 0.0378629229962825775 0.0178410634398460388 0 0 0 0 0 0
0.0161220617592334747 -0.0131496889516711235 0.0408302545547485352 0 0 0 0 0 0
0.0153257083147764206 -0.0136617971584200859 0.040247701108455658 0 0 0 0 0 0
0.0164129771292209625 -0.0137890856713056564 0.0403158776462078094 0 0 0 0 0 0
0.0149263180792331696 -0.0132052451372146606 0.0409574434161186218 0 0 0 0 0 0
0.0141750825569033623 -0.0124989254400134087 0.0420571863651275635 0 0 0 0 0 0
0.0149446083232760429 -0.0114164147526025772 0.0427397005259990692 0 0 0 0 0 0
0.00874090567231178284 -0.00588465668261051178 0.0476213470101356506 0 0 0 0 0 0
0.015672437846660614 -0.0124495867639780045 0.0416521504521369934 0 0 0 0 0 0
0.00441426970064640045 -0.0105498656630516052 0.0450944229960441589 0 0 0 0 0 0
0.0113232312723994255 -0.00733975274488329887 0.0356863327324390411 0 0 0 0 0 0
0.00862760655581951141 -0.00845237262547016144 0.0469132959842681885 0 0 0 0 0 0
0.00737939216196537018 -0.00606422498822212219 0.0372623875737190247 0 0 0 0 0 0
0.00893509015440940857 -0.009954819455742836 0.0399889759719371796 0 0 0 0 0 0
0.0148914828896522522 -0.0130143901333212852 0.0350117683410644531 0 0 0 0 0 0
0.0158610306680202484 -0.0145451566204428673 0.0338138453662395477 0 0 0 0 0 0
0.0173598602414131165 -0.0147819668054580688 0.0311158299446105957 0 0 0 0 0 0
0.0162773802876472473 -0.0124808773398399353 0.0322101302444934845 0 0 0 0 0 0
-0.00771061843261122704 0.00195543537847697735 0.0495310872793197632 0 0 0 0 0 0
2.52008139796089381e-05 -0.120914101600646973 -0.00321903708390891552 0 0 0 0 0 0
0.0378165468573570251 0.0476723276078701019 0.0116682266816496849 0 0 0 0 0 0
0.00828122720122337341 -0.0113230198621749878 0.0432814434170722961 0 0 0 0 0 0
0.00828363560140132904 -0.0106070172041654587 0.045589100569486618 0 0 0 0 0 0
0.0141305867582559586 -0.0096825798973441124 0.0339651070535182953 0 0 0 0 0 0
0.0130523210391402245 -0.0111297732219099998 0.0367426946759223938 0 0 0 0 0 0
0.0363058894872665405 0.0436543598771095276 0.0111143589019775391 0 0 0 0 0 0
0.0362870767712593079 0.0443062297999858856 0.0108749745413661003 0 0 0 0 0 0
0.022830648347735405 0.0869790539145469666 -0.17115318775177002 0 0 0 0 0 0
-0.00930787250399589539 0.0417762771248817444 0.0395541004836559296 0 0 0 0 0 0
0.012334778904914856 -0.012360522523522377 0.0396017655730247498 0 0 0 0 0 0
0.0123294917866587639 -0.0128216063603758812 0.0417431406676769257 0 0 0 0 0 0
0.013031303882598877 -0.00480061676353216171 0.0447070859372615814 0 0 0 0 0 0
0.00875212624669075012 -0.00355593371205031872 0.0474950969219207764 0 0 0 0 0 0
0.0351013392210006714 0.0466017946600914001 0.00951564125716686249 0 0 0 0 0 0
0.00102568976581096649 -0.00649154838174581528 0.0498472712934017181 0 0 0 0 0 0
0.000372985377907752991 -0.00318281981162726879 0.0504935458302497864 0 0 0 0 0 0
0.0312889888882637024 0.041088595986366272 0.015526970848441124 0 0 0 0 0 0
0.0213348008692264557 -0.0271507836878299713 0.0398753248155117035 0 0 0 0 0 0
0.015757489949464798 -0.0189827345311641693 0.0343008153140544891 0 0 0 0 0 0
0.0161827784031629562 -0.0141255110502243042 0.0403761081397533417 0 0 0 0 0 0
0.0161391273140907288 -0.0151111660525202751 0.0411282181739807129 0 0 0 0 0 0
0.0159346368163824081 -0.0206236429512500763 0.042723827064037323 0 0 0 0 0 0
0.0189009308815002441 -0.0178361218422651291 0.0399371907114982605 0 0 0 0 0 0
0.014409966766834259 -0.0157461129128932953 0.0430887192487716675 0 0 0 0 0 0
0.0133111607283353806 0.00152511522173881531 0.0406845137476921082 0 0 0 0 0 0
0.0295551028102636337 0.0417836606502532959 0.0116600198671221733 0 0 0 0 0 0
0.0154270492494106293 -0.0175538472831249237 0.0426037237048149109 0 0 0 0 0 0
0.0316006653010845184 0.0396719165146350861 0.0151579147204756737 0 0 0 0 0 0
0.0172684229910373688 -0.016213487833738327 0.0406642556190490723 0 0 0 0 0 0
0.0107178306207060814 -0.0139368921518325806 0.0408518239855766296 0 0 0 0 0 0
0.0239247120916843414 -0.0243496671319007874 0.0384830459952354431 0 0 0 0 0 0
0.0262232869863510132 0.129388749599456787 -0.10480201244354248 0 0 0 0 0 0
0.0186650063842535019 -0.0232542864978313446 0.0409676544368267059 0 0 0 0 0 0
0.0117791611701250076 -0.0128711340948939323 0.0432343743741512299 0 0 0 0 0 0
0.0145875513553619385 -0.0259332954883575439 0.0439652316272258759 0 0 0 0 0 0
-0.0073583647608757019 0.00874479394406080246 0.0454006567597389221 0 0 0 0 0 0
0.00252641690894961357 -0.0249239280819892883 0.0505010411143302917 0 0 0 0 0 0
0.00960951205343008041 -0.0126837817952036858 0.0456977002322673798 0 0 0 0 0 0
0.0104903019964694977 -0.0144026279449462891 0.0463538132607936859 0 0 0 0 0 0
-0.00493633374571800232 0.00895088072866201401 0.0451421141624450684 0 0 0 0 0 0
0.0135026406496763229 -0.0135002788156270981 0.0403741821646690369 0 0 0 0 0 0
0.0132729215547442436 -0.0221587400883436203 0.0448701754212379456 0 0 0 0 0 0
0.00761184468865394592 -0.0312404371798038483 0.047178369015455246 0 0 0 0 0 0
0.0144741563126444817 -0.0311240553855895996 0.0442107841372489929 0 0 0 0 0 0
0.0121960816904902458 -0.0190126709640026093 0.0457988493144512177 0 0 0 0 0 0
0.0851184651255607605 0.0274154357612133026 -0.071106642484664917 0 0 0 0 0 0
0.00741836894303560257 -0.0203510615974664688 0.0497970506548881531 0 0 0 0 0 0
0.00672917440533638 -0.0268252752721309662 0.0480468794703483582 0 0 0 0 0 0
0.00597248738631606102 -0.014378964900970459 0.0502430647611618042 0 0 0 0 0 0
-0.00721976300701498985 -0.00481010368093848228 0.0508948378264904022 0 0 0 0 0 0
-0.00509688258171081543 0.0148789053782820702 0.0456024669110774994 0 0 0 0 0 0
-0.007041949313133955 0.0161277316510677338 0.050955653190612793 0 0 0 0 0 0
-0.00850398745387792587 0.0135193904861807823 0.0479465872049331665 0 0 0 0 0 0
-0.00637655612081289291 0.0151826348155736923 0.047888629138469696 0 0 0 0 0 0
0.000361695274477824569 0.00686491094529628754 0.0446564927697181702 0 0 0 0 0 0
-0.000793115235865116119 0.0202622599899768829 0.0506151430308818817 0 0 0 0 0 0
-0.00349767087027430534 0.0217694099992513657 0.0539191141724586487 0 0 0 0 0 0
0.00018147069204133004 0.0215870663523674011 0.0501861274242401123 0 0 0 0 0 0
-0.00173196080140769482 0.0214690323919057846 0.0519665256142616272 0 0 0 0 0 0
-0.00201554503291845322 0.0201719757169485092 0.0516264140605926514 0 0 0 0 0 0
-0.00580225791782140732 0.0175533127039670944 0.0521488115191459656 0 0 0 0 0 0
-0.00122390198521316051 0.0216096155345439911 0.0435840338468551636 0 0 0 0 0 0
-0.00639032851904630661 0.0187270212918519974 0.0542732477188110352 0 0 0 0 0 0
-0.00541866151615977287 0.0216651167720556259 0.0552771203219890594 0 0 0 0 0 0
-0.00456410832703113556 0.0191866084933280945 0.0532258264720439911 0 0 0 0 0 0
-0.00747237540781497955 0.012769743800163269 0.0460724830627441406 0 0 0 0 0 0
-0.0104273324832320213 0.0691848769783973694 0.0210887100547552109 0 0 0 0 0 0
-0.00160820106975734234 0.0242661498486995697 0.0524247214198112488 0 0 0 0 0 0
-0.00391384400427341461 0.025504622608423233 0.054375864565372467 0 0 0 0 0 0
0.000954362563788890839 0.0254740472882986069 0.0475931577384471893 0 0 0 0 0 0
0.000417536444729194045 -0.0119367074221372604 0.0516755729913711548 0 0 0 0 0 0
0.00144545082002878189 -0.0101351933553814888 0.0445389077067375183 0 0 0 0 0 0
0.00232460326515138149 -0.0119730103760957718 0.0454093925654888153 0 0 0 0 0 0
0.00508965831249952316 -0.0121368244290351868 0.0491826646029949188 0 0 0 0 0 0
-0.00122941029258072376 -0.0230329819023609161 0.0390356406569480896 0 0 0 0 0 0
-0.00468410737812519073 0.103564083576202393 -0.00967427529394626617 0 0 0 0 0 0
-0.023014431819319725 0.0137966293841600418 0.039965163916349411 0 0 0 0 0 0
-0.00530160358175635338 -0.0232440270483493805 0.0390185639262199402 0 0 0 0 0 0
-0.015696842223405838 0.0156654901802539825 0.0467484407126903534 0 0 0 0 0 0
0.0158500969409942627 -0.0235379487276077271 0.0336368978023529053 0 0 0 0 0 0
-0.00579765718430280685 -0.0168930869549512863 0.0419423803687095642 0 0 0 0 0 0
0.0140073252841830254 -0.0185750089585781097 0.0361187644302845001 0 0 0 0 0 0
-0.0198385640978813171 0.0177634060382843018 0.0471049919724464417 0 0 0 0 0 0
-0.0153637630864977837 0.0171647071838378906 0.0423269122838973999 0 0 0 0 0 0
-0.0211491938680410385 0.0181179791688919067 0.0360950194299221039 0 0 0 0 0 0
-0.00165785138960927725 -0.0168840102851390839 0.0418301187455654144 0 0 0 0 0 0
0.0118025541305541992 -0.0231412164866924286 0.0358085893094539642 0 0 0 0 0 0
0.00215304689481854439 -0.0213497988879680634 0.0525579303503036499 0 0 0 0 0 0
0.00711706653237342834 -0.023060014471411705 0.0373797416687011719 0 0 0 0 0 0
0.0109361167997121811 -0.0182897113263607025 0.0379056259989738464 0 0 0 0 0 0
0.0030962764285504818 -0.0287421103566884995 0.0487390570342540741 0 0 0 0 0 0
0.0531504377722740173 0.0940298959612846375 -0.0343808643519878387 0 0 0 0 0 0
0.0625202357769012451 0.093044281005859375 -0.0494970306754112244 0 0 0 0 0 0
0.0483113750815391541 0.0458955690264701843 0.00126992957666516304 0 0 0 0 0 0
0.0273160096257925034 0.0504896417260169983 0.0163458064198493958 0 0 0 0 0 0
-0.0202503390610218048 0.013637252151966095 0.0384965948760509491 0 0 0 0 0 0
0.0359658896923065186 0.126662284135818481 -0.105175971984863281 0 0 0 0 0 0
0.00397881213575601578 0.126138687133789062 -0.128327295184135437 0 0 0 0 0 0
0.0258603766560554504 0.0509035959839820862 0.0175536684691905975 0 0 0 0 0 0
0.0258766263723373413 0.12764054536819458 -0.116283915936946869 0 0 0 0 0 0
0.0392292365431785583 -0.0856462344527244568 -0.101874515414237976 0 0 0 0 0 0
0.0205642282962799072 0.133151769638061523 -0.0858464688062667847 0 0 0 0 0 0
0.0120255127549171448 0.135061025619506836 -0.076224401593208313 0 0 0 0 0 0
-0.00544289220124483109 0.0959832817316055298 -0.000995638198219239712 0 0 0 0 0 0
0.00301107275299727917 0.129284769296646118 -0.121294222772121429 0 0 0 0 0 0
0.0784988179802894592 0.0268787629902362823 -0.0638037919998168945 0 0 0 0 0 0
0.0596777461469173431 -0.0464739874005317688 -0.0846282094717025757 0 0 0 0 0 0
0.039673488587141037 0.126154005527496338 -0.0867866277694702148 0 0 0 0 0 0
0.0724472403526306152 -0.0209510177373886108 -0.0597677901387214661 0 0 0 0 0 0
0.072420164942741394 -0.0169808156788349152 -0.0850893855094909668 0 0 0 0 0 0
0.0198195166885852814 -0.0112073151394724846 0.0401799902319908142 0 0 0 0 0 0
0.0796187296509742737 0.0269874557852745056 -0.0628710836172103882 0 0 0 0 0 0
0.0710423737764358521 0.00208948832005262375 -0.0464982949197292328 0 0 0 0 0 0
0.0528743565082550049 -0.0500992909073829651 -0.10231202095746994 0 0 0 0 0 0
0.00667883222922682762 -0.0175507236272096634 0.039793550968170166 0 0 0 0 0 0
0.0822328180074691772 -0.00971103925257921219 -0.0713232457637786865 0 0 0 0 0 0
0.0274810977280139923 0.0435040965676307678 0.0167339425534009933 0 0 0 0 0 0
0.0290753617882728577 0.0401349067687988281 0.0164343267679214478 0 0 0 0 0 0
0.0365616083145141602 0.0486247800290584564 0.0132026616483926773 0 0 0 0 0 0
0.0248144082725048065 0.019833715632557869 0.0296228192746639252 0 0 0 0 0 0
0.0701994448900222778 -0.0228811111301183701 -0.053095303475856781 0 0 0 0 0 0
0.0801857337355613708 0.0259871445596218109 -0.0689688846468925476 0 0 0 0 0 0
0.0705040842294692993 -0.0223738029599189758 -0.0547147952020168304 0 0 0 0 0 0
0.0271106511354446411 0.0346871539950370789 0.0186007916927337646 0 0 0 0 0 0
0.0212737619876861572 0.0991065949201583862 -0.162779241800308228 0 0 0 0 0 0
0.0702574104070663452 -0.022252177819609642 -0.0562520436942577362 0 0 0 0 0 0
-0.00835064984858036041 0.0511140823364257812 0.0274499841034412384 0 0 0 0 0 0
0.0716013684868812561 -0.0217450447380542755 -0.0575181618332862854 0 0 0 0 0 0
-0.0095872906967997551 0.0244606547057628632 0.0575716122984886169 0 0 0 0 0 0
0.0354461632668972015 0.0445459708571434021 0.0114594381302595139 0 0 0 0 0 0
0.0685405880212783813 -0.0241305083036422729 -0.0537987947463989258 0 0 0 0 0 0
0.0660064518451690674 -0.015882931649684906 -0.0272965915501117706 0 0 0 0 0 0
0.070281587541103363 -0.0241196863353252411 -0.0512265786528587341 0 0 0 0 0 0
0.0696425735950469971 -0.0252788513898849487 -0.0496722087264060974 0 0 0 0 0 0
0.0749672502279281616 -0.00091481086565181613 -0.0520620159804821014 0 0 0 0 0 0
0.0611847564578056335 -0.0547534376382827759 -0.0486337840557098389 0 0 0 0 0 0
-0.00486032944172620773 0.0232906267046928406 0.0552818179130554199 0 0 0 0 0 0
0.0700777396559715271 -0.0224489327520132065 -0.0575880818068981171 0 0 0 0 0 0
0.0792227089405059814 0.0184345375746488571 -0.0738124102354049683 0 0 0 0 0 0
0.0885329246520996094 0.019464028999209404 -0.0745369419455528259 0 0 0 0 0 0
0.0745929181575775146 -0.00331593118607997894 -0.0511261932551860809 0 0 0 0 0 0
0.092542499303817749 0.00767909269779920578 -0.0767003521323204041 0 0 0 0 0 0
0.0801219865679740906 0.0172013826668262482 -0.0598025694489479065 0 0 0 0 0 0
0.076203368604183197 -0.0269959084689617157 -0.0530782341957092285 0 0 0 0 0 0
0.0947882458567619324 -0.00025351796648465097 -0.0746514797210693359 0 0 0 0 0 0
0.0769858285784721375 -0.0247466526925563812 -0.055512499064207077 0 0 0 0 0 0
0.00423805974423885345 -0.0109718870371580124 0.0478375628590583801 0 0 0 0 0 0
0.0167803484946489334 -0.00591596914455294609 0.0421189665794372559 0 0 0 0 0 0
-0.00354534992948174477 -0.00590694043785333633 0.0382361225783824921 0 0 0 0 0 0
0.0771538689732551575 -0.00447701476514339447 -0.082866668701171875 0 0 0 0 0 0
0.0690840482711791992 -0.0210174843668937683 -0.100423455238342285 0 0 0 0 0 0
-0.0472629331052303314 -0.0854343175888061523 -0.0352918505668640137 0 0 0 0 0 0
0.0749984681606292725 -0.0122507093474268913 -0.0786556228995323181 0 0 0 0 0 0
0.0392686352133750916 0.0489595793187618256 0.0113507015630602837 0 0 0 0 0 0
0.0188550464808940887 0.0504689924418926239 0.0153320636600255966 0 0 0 0 0 0
0.083150714635848999 0.0254313498735427856 -0.0988004803657531738 0 0 0 0 0 0
0.0729075595736503601 -0.0117431636899709702 -0.0602198764681816101 0 0 0 0 0 0
0.0814966559410095215 0.0226764734834432602 -0.0649043470621109009 0 0 0 0 0 0
0.0882293581962585449 0.0219223760068416595 -0.0700311809778213501 0 0 0 0 0 0
0.0233497694134712219 0.0428886227309703827 0.0166089516133069992 0 0 0 0 0 0
0.0342227816581726074 0.0420634150505065918 0.0134420990943908691 0 0 0 0 0 0
0.022586403414607048 0.0531168393790721893 0.0172446928918361664 0 0 0 0 0 0
-0.00741629442200064659 0.0235908478498458862 0.0568967461585998535 0 0 0 0 0 0
0.0838517099618911743 -0.00240974919870495796 -0.0736165940761566162 0 0 0 0 0 0
0.0852135047316551208 0.0213149078190326691 -0.0687551125884056091 0 0 0 0 0 0
-0.040670052170753479 0.0276226401329040527 0.0133302537724375725 0 0 0 0 0 0
-0.00230063032358884811 0.0142795424908399582 0.0433564707636833191 0 0 0 0 0 0
0.00547934975475072861 -0.00241502933204174042 0.048930637538433075 0 0 0 0 0 0
0.0514142215251922607 -0.0844005867838859558 -0.0831077396869659424 0 0 0 0 0 0
-0.00536970421671867371 0.0229956544935703278 0.0415119528770446777 0 0 0 0 0 0
-0.00650227349251508713 0.0163186453282833099 0.0502041876316070557 0 0 0 0 0 0
0.093823656439781189 0.00801332201808691025 -0.07863655686378479 0 0 0 0 0 0
-0.0708967000246047974 -0.00848147459328174591 -0.0710416883230209351 0 0 0 0 0 0
-0.0808275267481803894 0.00361954024992883205 -0.100415796041488647 0 0 0 0 0 0
0.0852075740694999695 -0.00692665949463844299 -0.0721347033977508545 0 0 0 0 0 0
-0.0803051739931106567 -0.0128852901980280876 -0.0881643146276473999 0 0 0 0 0 0
0.0809669792652130127 0.011290866881608963 -0.074486754834651947 0 0 0 0 0 0
0.0800201445817947388 0.0129707818850874901 -0.0745075717568397522 0 0 0 0 0 0
0.0914006680250167847 0.00745738809928297997 -0.0768659412860870361 0 0 0 0 0 0
-0.0829451307654380798 0.00877261906862258911 -0.0954224392771720886 0 0 0 0 0 0
0.0800938233733177185 0.0211810823529958725 -0.0752342119812965393 0 0 0 0 0 0
0.000718289986252784729 0.0160536952316761017 0.0401988774538040161 0 0 0 0 0 0
0.0836730524897575378 0.0739051848649978638 -0.108087360858917236 0 0 0 0 0 0
0.0864860862493515015 0.0479052029550075531 -0.113033279776573181 0 0 0 0 0 0
0.0732915103435516357 -0.00752914324402809143 -0.0506450161337852478 0 0 0 0 0 0
0.0171106625348329544 -0.0144519796594977379 0.0402952097356319427 0 0 0 0 0 0
-0.0779610797762870789 0.0139550548046827316 -0.0923799201846122742 0 0 0 0 0 0
0.0804415345191955566 0.025639120489358902 -0.0713665634393692017 0 0 0 0 0 0
-0.0684551522135734558 -0.00452257459983229637 -0.0807647705078125 0 0 0 0 0 0
0.0815556570887565613 0.0277073141187429428 -0.0685134679079055786 0 0 0 0 0 0
0.0815571248531341553 0.0260183513164520264 -0.0697827339172363281 0 0 0 0 0 0
0.0830551832914352417 -0.0140284327790141106 -0.0676694735884666443 0 0 0 0 0 0
0.0824449434876441956 0.026845073327422142 -0.0705192536115646362 0 0 0 0 0 0
0.0807350873947143555 0.0216325055807828903 -0.0634863302111625671 0 0 0 0 0 0
0.0632950887084007263 0.0987735092639923096 -0.0594685599207878113 0 0 0 0 0 0
0.0568032935261726379 0.10931694507598877 -0.0623110048472881317 0 0 0 0 0 0
0.0814753100275993347 0.0668854713439941406 -0.088419698178768158 0 0 0 0 0 0
0.0638562366366386414 -0.00685061141848564148 -0.058274686336517334 0 0 0 0 0 0
0.0162714309990406036 -0.00815458782017230988 0.042725827544927597 0 0 0 0 0 0
0.0235428027808666229 0.0434071794152259827 0.0180452093482017517 0 0 0 0 0 0
-0.00214596791192889214 0.0121080353856086731 0.0430142097175121307 0 0 0 0 0 0
-0.0849941074848175049 -0.00141629832796752453 -0.0991058871150016785 0 0 0 0 0 0
0.0868515223264694214 0.0204295516014099121 -0.0712470635771751404 0 0 0 0 0 0
0.079548373818397522 -0.0141516178846359253 -0.0552321150898933411 0 0 0 0 0 0
0.0752687603235244751 0.0154715105891227722 -0.0618827193975448608 0 0 0 0 0 0
0.0845791101455688477 0.058054603636264801 -0.100324749946594238 0 0 0 0 0 0
0.00601417943835258484 0.134141504764556885 -0.058322615921497345 0 0 0 0 0 0
0.0222501456737518311 0.0403187572956085205 0.0178729332983493805 0 0 0 0 0 0
0.0786674022674560547 0.0825825631618499756 -0.0948035567998886108 0 0 0 0 0 0
0.0728404521942138672 0.0909037217497825623 -0.0810928270220756531 0 0 0 0 0 0
0.0708681643009185791 0.0993030667304992676 -0.0925716012716293335 0 0 0 0 0 0
0.0649405643343925476 0.108037374913692474 -0.0996085032820701599 0 0 0 0 0 0
0.0695591866970062256 0.102752767503261566 -0.1138453409075737 0 0 0 0 0 0
0.0811206847429275513 0.021303301677107811 -0.0708019733428955078 0 0 0 0 0 0
0.0209994912147521973 0.0434625707566738129 0.0179989766329526901 0 0 0 0 0 0
0.035762391984462738 0.0451110899448394775 0.00750437658280134201 0 0 0 0 0 0
0.0560932420194149017 0.113034985959529877 -0.0700682401657104492 0 0 0 0 0 0
0.0340992137789726257 0.0430106036365032196 0.00979668274521827698 0 0 0 0 0 0
0.0535455457866191864 0.116809621453285217 -0.0764870941638946533 0 0 0 0 0 0
-0.0839606374502182007 0.0118677830323576927 -0.0922138690948486328 0 0 0 0 0 0
0.0728848427534103394 0.0830061882734298706 -0.0677468180656433105 0 0 0 0 0 0
0.0661527067422866821 -0.0266932025551795959 -0.049257185310125351 0 0 0 0 0 0
0.0589399561285972595 0.112754940986633301 -0.0867407172918319702 0 0 0 0 0 0
0.0639386624097824097 0.106260776519775391 -0.0795214846730232239 0 0 0 0 0 0
-0.0687309056520462036 -0.0213699396699666977 -0.0666451677680015564 0 0 0 0 0 0
-0.0769613608717918396 -0.00182236894033849239 -0.0857553631067276001 0 0 0 0 0 0
0.0652494803071022034 0.0771560519933700562 -0.0427167043089866638 0 0 0 0 0 0
0.0696626752614974976 0.0222428962588310242 -0.0449226014316082001 0 0 0 0 0 0
0.062261529266834259 0.0374598503112792969 -0.025317532941699028 0 0 0 0 0 0
-0.0783275365829467773 0.0179807879030704498 -0.0865613371133804321 0 0 0 0 0 0
0.0709176883101463318 0.000829118420369923115 -0.0608519017696380615 0 0 0 0 0 0
0.0623148642480373383 0.0506810471415519714 -0.0300750806927680969 0 0 0 0 0 0
-0.0838028043508529663 -0.0113194435834884644 -0.0942328870296478271 0 0 0 0 0 0
0.0320780724287033081 0.0432283282279968262 0.0146306417882442474 0 0 0 0 0 0
-0.0844897925853729248 0.00736041273921728134 -0.0942585691809654236 0 0 0 0 0 0
0.0397298485040664673 0.058086048811674118 0.0112741086632013321 0 0 0 0 0 0
-0.0782879292964935303 0.0110773034393787384 -0.079755246639251709 0 0 0 0 0 0
0.0742668062448501587 0.00364276091568171978 -0.0570157766342163086 0 0 0 0 0 0
-0.083280615508556366 0.00915955193340778351 -0.0990712270140647888 0 0 0 0 0 0
0.0274846218526363373 0.0362961739301681519 0.0176808908581733704 0 0 0 0 0 0
-0.072262398898601532 -0.0190499387681484222 -0.0842950940132141113 0 0 0 0 0 0
-0.0770988613367080688 0.0173751283437013626 -0.0827149748802185059 0 0 0 0 0 0
-0.0672844797372817993 -0.00399125088006258011 -0.084371715784072876 0 0 0 0 0 0
0.0828195363283157349 0.0350999310612678528 -0.1370810866355896 0 0 0 0 0 0
0.0931856855750083923 0.0188133176416158676 -0.0765906572341918945 0 0 0 0 0 0
-0.067774653434753418 -0.00575495278462767601 -0.0753554627299308777 0 0 0 0 0 0
0.0712919235229492188 0.0368911474943161011 -0.15470007061958313 0 0 0 0 0 0
-0.00627325801178812981 0.088702276349067688 0.0064287218265235424 0 0 0 0 0 0
-0.00509542180225253105 0.0190135017037391663 0.0408917851746082306 0 0 0 0 0 0
-0.0672557801008224487 -0.0171114616096019745 -0.0613246969878673553 0 0 0 0 0 0
0.00368623528629541397 0.0127264279872179031 0.040312647819519043 0 0 0 0 0 0
0.0262004043906927109 0.0512140765786170959 0.0152071956545114517 0 0 0 0 0 0
-0.0743649601936340332 -0.0330979079008102417 -0.0724158361554145813 0 0 0 0 0 0
0.0400698594748973846 0.0235234647989273071 -0.174015969038009644 0 0 0 0 0 0
-0.0160645879805088043 -0.0427896380424499512 -0.138382285833358765 0 0 0 0 0 0
-0.000552697456441819668 0.0409529320895671844 0.0263842754065990448 0 0 0 0 0 0
-0.0768812447786331177 0.0135521888732910156 -0.078049004077911377 0 0 0 0 0 0
-0.0828420817852020264 -0.00869414489716291428 -0.0988519787788391113 0 0 0 0 0 0
0.0806127190589904785 0.0136300697922706604 -0.073489844799041748 0 0 0 0 0 0
0.0393373779952526093 0.0802607089281082153 -0.0082128988578915596 0 0 0 0 0 0
0.0386066809296607971 0.0572406649589538574 -0.176848918199539185 0 0 0 0 0 0
0.0280422680079936981 0.119296610355377197 -0.136610150337219238 0 0 0 0 0 0
0.0924482345581054688 -0.00575582869350910187 -0.0713457092642784119 0 0 0 0 0 0
0.0718802958726882935 0.0948707610368728638 -0.128070622682571411 0 0 0 0 0 0
-0.0573257468640804291 -0.0313002243638038635 -0.0975789874792098999 0 0 0 0 0 0
0.0532252304255962372 0.117778658866882324 -0.0901708602905273438 0 0 0 0 0 0
-0.0717574581503868103 -0.00105604995042085648 -0.0783290192484855652 0 0 0 0 0 0
-0.0796258226037025452 0.012354288250207901 -0.0883996188640594482 0 0 0 0 0 0
0.0798502564430236816 0.0172835700213909149 -0.0588967762887477875 0 0 0 0 0 0
0.0675105974078178406 0.052300523966550827 -0.158012986183166504 0 0 0 0 0 0
0.0801756605505943298 0.0103642400354146957 -0.0754721164703369141 0 0 0 0 0 0
0.0633388087153434753 0.0632126256823539734 -0.159104228019714355 0 0 0 0 0 0
0.0643334239721298218 -0.00711565092206001282 -0.0618811845779418945 0 0 0 0 0 0
0.0573407039046287537 0.0723855644464492798 -0.16084502637386322 0 0 0 0 0 0
-0.0704620331525802612 -0.0242639929056167603 -0.0665258467197418213 0 0 0 0 0 0
0.087897084653377533 -0.00606353208422660828 -0.0666859820485115051 0 0 0 0 0 0
-0.0727044194936752319 0.00441197026520967484 -0.0828448832035064697 0 0 0 0 0 0
-0.0739599764347076416 0.00420257961377501488 -0.0777783021330833435 0 0 0 0 0 0
0.0769089981913566589 0.0743635445833206177 -0.0759932920336723328 0 0 0 0 0 0
-0.000647359760478138924 0.135400384664535522 -0.0623778849840164185 0 0 0 0 0 0
0.0714372321963310242 0.00793202593922615051 -0.145485639572143555 0 0 0 0 0 0
0.0689839273691177368 -0.00735475029796361923 -0.137890174984931946 0 0 0 0 0 0
-0.0103102121502161026 0.0453502461314201355 0.0352967754006385803 0 0 0 0 0 0
0.0766558796167373657 -0.000815958424936980009 -0.11345517635345459 0 0 0 0 0 0
0.0578571408987045288 0.11448371410369873 -0.103810787200927734 0 0 0 0 0 0
0.0730198845267295837 -0.0212870538234710693 -0.0586682669818401337 0 0 0 0 0 0
0.023355141282081604 0.0435141436755657196 0.017608247697353363 0 0 0 0 0 0
0.0359504446387290955 0.0435666553676128387 0.0114841265603899956 0 0 0 0 0 0
0.0477623343467712402 0.0390936881303787231 0.00271978229284286499 0 0 0 0 0 0
0.00284301722422242165 0.0376331694424152374 0.0239557698369026184 0 0 0 0 0 0
0.00557453371584415436 0.0316732488572597504 0.0278920885175466537 0 0 0 0 0 0
0.0456263236701488495 0.0412206314504146576 0.00414829282090067863 0 0 0 0 0 0
0.0464890711009502411 0.0362510904669761658 0.00509273586794734001 0 0 0 0 0 0
-0.0779222100973129272 0.0100345853716135025 -0.0804934203624725342 0 0 0 0 0 0
-0.0733612403273582458 -0.0337746888399124146 -0.069169953465461731 0 0 0 0 0 0
0.00237260665744543076 0.0288400761783123016 0.0349284186959266663 0 0 0 0 0 0
-0.0842875763773918152 -0.00230404082685709 -0.0967858284711837769 0 0 0 0 0 0
0.0073179975152015686 0.0136949140578508377 0.0380756966769695282 0 0 0 0 0 0
0.0103437863290309906 0.0162177905440330505 0.0324975736439228058 0 0 0 0 0 0
0.00869833119213581085 0.0179851017892360687 0.033473476767539978 0 0 0 0 0 0
0.00870054494589567184 0.0129494471475481987 0.0346354879438877106 0 0 0 0 0 0
0.0903745591640472412 -0.0136186461895704269 -0.0677552744746208191 0 0 0 0 0 0
0.0679310709238052368 -0.00143532315269112587 -0.0581622645258903503 0 0 0 0 0 0
-0.0701905861496925354 0.00434520002454519272 -0.0789751261472702026 0 0 0 0 0 0
0.0798151791095733643 0.024164300411939621 -0.0698191821575164795 0 0 0 0 0 0
0.0098405592143535614 0.0245958529412746429 0.0299715250730514526 0 0 0 0 0 0
0.00305032148025929928 0.0249962061643600464 0.0430111661553382874 0 0 0 0 0 0
0.00965333264321088791 0.0287869907915592194 0.0271506421267986298 0 0 0 0 0 0
0.00639664940536022186 0.0200224742293357849 0.0423377752304077148 0 0 0 0 0 0
0.0743750631809234619 0.000238277803873643279 -0.0559890270233154297 0 0 0 0 0 0
0.0210586041212081909 0.0424022786319255829 0.0158507507294416428 0 0 0 0 0 0
-0.00317307258956134319 0.0397118814289569855 0.0336927846074104309 0 0 0 0 0 0
0.0717950910329818726 -0.0221241526305675507 -0.0556818470358848572 0 0 0 0 0 0
0.0189669597893953323 0.0510019436478614807 0.0128781935200095177 0 0 0 0 0 0
0.00301643460988998413 0.0229711234569549561 0.0462376326322555542 0 0 0 0 0 0
0.00298599409870803356 0.0262348279356956482 0.0381134599447250366 0 0 0 0 0 0
0.0813890621066093445 0.018849540501832962 -0.0719363614916801453 0 0 0 0 0 0
-0.0704802647233009338 -0.0232887454330921173 -0.0857814177870750427 0 0 0 0 0 0
0.00656284112483263016 0.0339063815772533417 0.0238842424005270004 0 0 0 0 0 0
0.0060744481161236763 0.027823297306895256 0.030683908611536026 0 0 0 0 0 0
0.0432515069842338562 0.0862280726432800293 -0.162578389048576355 0 0 0 0 0 0
0.0153715331107378006 0.017024211585521698 0.0318761542439460754 0 0 0 0 0 0
-0.0598940402269363403 -0.00804419722408056259 -0.0763772875070571899 0 0 0 0 0 0
0.0172996968030929565 0.0211170725524425507 0.0301698707044124603 0 0 0 0 0 0
0.0116206426173448563 0.0201994758099317551 0.03109736368060112 0 0 0 0 0 0
0.0187376625835895538 0.0244888365268707275 0.0277618970721960068 0 0 0 0 0 0
0.0197270773351192474 0.013707287609577179 0.0330058634281158447 0 0 0 0 0 0
0.00227978895418345928 0.0357965491712093353 0.0275983568280935287 0 0 0 0 0 0
0.0266092997044324875 0.0429679155349731445 0.0160335991531610489 0 0 0 0 0 0
0.0502193234860897064 0.026358485221862793 0.0089962352067232132 0 0 0 0 0 0
-0.0723353400826454163 -0.0302079729735851288 -0.0799168795347213745 0 0 0 0 0 0
0.033526293933391571 0.0506463348865509033 0.0155683588236570358 0 0 0 0 0 0
-0.0568749122321605682 -0.0846700891852378845 -0.0638073012232780457 0 0 0 0 0 0
-0.0673006176948547363 -0.00367750972509384155 -0.0820200443267822266 0 0 0 0 0 0
-0.0691177472472190857 -0.00746199116110801697 -0.0647201240062713623 0 0 0 0 0 0
0.0751483067870140076 -0.0295602940022945404 -0.0483955256640911102 0 0 0 0 0 0
0.0796488970518112183 0.0154211055487394333 -0.0734473913908004761 0 0 0 0 0 0
0.0731385499238967896 0.00869135186076164246 -0.0651030689477920532 0 0 0 0 0 0
0.0331238657236099243 0.0146277500316500664 0.0288498476147651672 0 0 0 0 0 0
0.0846660733222961426 0.0135329617187380791 -0.0763830244541168213 0 0 0 0 0 0
-0.0151316029950976372 -0.101481452584266663 -0.00236956099979579449 0 0 0 0 0 0
-0.0729907304048538208 0.00192648067604750395 -0.0816731750965118408 0 0 0 0 0 0
0.0448538884520530701 0.121279507875442505 -0.0667164325714111328 0 0 0 0 0 0
0.0306657832115888596 0.00993454083800315857 0.0317674018442630768 0 0 0 0 0 0
0.0211456622928380966 0.0258666165173053741 0.0263376533985137939 0 0 0 0 0 0
0.0270522050559520721 0.0116914883255958557 0.0326851420104503632 0 0 0 0 0 0
0.00154636835213750601 0.0322329476475715637 0.0329753085970878601 0 0 0 0 0 0
0.0226145200431346893 0.0296673141419887543 0.0232198238372802734 0 0 0 0 0 0
0.0314191095530986786 0.025319291278719902 0.0238264575600624084 0 0 0 0 0 0
0.0308568459004163742 0.0206503551453351974 0.0269388705492019653 0 0 0 0 0 0
0.0445693247020244598 0.0609167814254760742 0.00161436013877391815 0 0 0 0 0 0
0.0471566729247570038 0.0556363686919212341 0.000913516792934387922 0 0 0 0 0 0
0.00595132075250148773 0.0325796008110046387 0.0262938402593135834 0 0 0 0 0 0
0.0420600287616252899 0.0181384608149528503 0.0212344210594892502 0 0 0 0 0 0
0.0167660322040319443 0.0283806473016738892 0.0250999238342046738 0 0 0 0 0 0
0.0364091433584690094 0.0225115232169628143 0.0231507010757923126 0 0 0 0 0 0
0.0406758114695549011 0.0262006428092718124 0.018497927114367485 0 0 0 0 0 0
0.0473414808511734009 0.000722132332157343626 -0.163895756006240845 0 0 0 0 0 0
0.0280235856771469116 -0.0766901597380638123 -0.113482825458049774 0 0 0 0 0 0
0.0179023705422878265 0.0307291895151138306 0.0229603704065084457 0 0 0 0 0 0
0.0211828835308551788 0.0371179133653640747 0.0183446966111660004 0 0 0 0 0 0
0.0252988897264003754 0.0369095094501972198 0.0179188009351491928 0 0 0 0 0 0
0.0314647629857063293 0.0294180884957313538 0.0210025589913129807 0 0 0 0 0 0
0.0197864677757024765 0.0342544540762901306 0.0198739748448133469 0 0 0 0 0 0
0.0242147874087095261 0.0338045284152030945 0.0197467431426048279 0 0 0 0 0 0
0.0418126992881298065 0.036940205842256546 0.00880405306816101074 0 0 0 0 0 0
0.0388340651988983154 0.0408559292554855347 0.00936543382704257965 0 0 0 0 0 0
