ply
format ascii 1.0
element vertex 603
property float x
property float y
property float z
property float nx
property float ny
property float nz
property uchar red
property uchar green
property uchar blue
end_header
-0.0872115194797515869 0.0215649064630270004 -0.0835080966353416443 0 0 0 0 0 0
-0.0840853303670883179 0.0219934694468975067 -0.0861991643905639648 0 0 0 0 0 0
-0.0838644504547119141 0.0199611857533454895 -0.0880935192108154297 0 0 0 0 0 0
-0.0844856724143028259 0.0209424551576375961 -0.0895970463752746582 0 0 0 0 0 0
-0.0846256241202354431 0.0230650827288627625 -0.0875296443700790405 0 0 0 0 0 0
-0.0867451876401901245 0.019144667312502861 -0.0943272635340690613 0 0 0 0 0 0
-0.0838087350130081177 0.0174671020358800888 -0.08969908207654953 0 0 0 0 0 0
-0.0837823599576950073 0.0143330544233322144 -0.0903744325041770935 0 0 0 0 0 0
-0.0846536308526992798 0.0151243796572089195 -0.0928194373846054077 0 0 0 0 0 0
-0.0844955369830131531 0.0182255096733570099 -0.0912653431296348572 0 0 0 0 0 0
-0.0818659514188766479 0.0168085116893053055 -0.0858255550265312195 0 0 0 0 0 0
-0.0775206685066223145 -0.0252547226846218109 -0.075350835919380188 0 0 0 0 0 0
-0.0862578004598617554 -0.0109162088483572006 -0.0889152735471725464 0 0 0 0 0 0
-0.0815148651599884033 0.010705258697271347 -0.0877054780721664429 0 0 0 0 0 0
-0.0812110453844070435 0.0132118146866559982 -0.0862396359443664551 0 0 0 0 0 0
-0.0805998668074607849 0.0123794451355934143 -0.0864195451140403748 0 0 0 0 0 0
-0.0809761211276054382 0.00942037999629974365 -0.0876637250185012817 0 0 0 0 0 0
-0.0808077007532119751 0.024389415979385376 -0.0854412168264389038 0 0 0 0 0 0
-0.0801492780447006226 0.021244928240776062 -0.0865819677710533142 0 0 0 0 0 0
-0.0802388712763786316 0.0223497301340103149 -0.084197700023651123 0 0 0 0 0 0
-0.0780708193778991699 0.059023585170507431 -0.102654479444026947 0 0 0 0 0 0
-0.0741447657346725464 0.0751081183552742004 -0.107554398477077484 0 0 0 0 0 0
-0.0702780112624168396 0.0673277303576469421 -0.122181743383407593 0 0 0 0 0 0
-0.0751344859600067139 0.0505038723349571228 -0.116093754768371582 0 0 0 0 0 0
0.0709366053342819214 0.00766098638996481895 -0.0285065602511167526 0 0 0 0 0 0
-0.0808080285787582397 0.0129119893535971642 -0.0723903849720954895 0 0 0 0 0 0
-0.082060687243938446 -0.011099337600171566 -0.0633632391691207886 0 0 0 0 0 0
0.0715333521366119385 0.0318504199385643005 -0.141897201538085938 0 0 0 0 0 0
-0.0800950378179550171 0.0225533992052078247 -0.0819146782159805298 0 0 0 0 0 0
-0.0806064456701278687 0.0228344537317752838 -0.0803919807076454163 0 0 0 0 0 0
-0.0810125172138214111 0.0246670600026845932 -0.0795462653040885925 0 0 0 0 0 0
-0.0807773023843765259 0.0242993049323558807 -0.0808807313442230225 0 0 0 0 0 0
-0.0821663886308670044 0.0251862462610006332 -0.07920035719871521 0 0 0 0 0 0
-0.0838207229971885681 0.0277859922498464584 -0.0792192667722702026 0 0 0 0 0 0
-0.0829674229025840759 0.0268365070223808289 -0.0782092437148094177 0 0 0 0 0 0
-0.0831658840179443359 0.0259930472820997238 -0.0805738493800163269 0 0 0 0 0 0
-0.0840754956007003784 0.0272235870361328125 -0.0819692239165306091 0 0 0 0 0 0
-0.0846624597907066345 -0.0189971476793289185 -0.0834578126668930054 0 0 0 0 0 0
-0.0760850012302398682 -0.0245957132428884506 -0.0758575797080993652 0 0 0 0 0 0
-0.083964228630065918 0.0195212475955486298 -0.0762516707181930542 0 0 0 0 0 0
-0.080817103385925293 0.0146476030349731445 -0.0767069756984710693 0 0 0 0 0 0
-0.068007051944732666 0.0937952548265457153 -0.0529968403279781342 0 0 0 0 0 0
-0.0623900890350341797 0.0993675887584686279 -0.0450693480670452118 0 0 0 0 0 0
-0.062947295606136322 0.105133078992366791 -0.0532539412379264832 0 0 0 0 0 0
-0.0686127021908760071 0.0987293720245361328 -0.0627947971224784851 0 0 0 0 0 0
-0.0789926797151565552 0.0663035213947296143 -0.08930186927318573 0 0 0 0 0 0
-0.0778156071901321411 0.0720661729574203491 -0.0751888006925582886 0 0 0 0 0 0
-0.0733411833643913269 0.0887407809495925903 -0.0770719051361083984 0 0 0 0 0 0
-0.0752397626638412476 0.0822676569223403931 -0.0926738530397415161 0 0 0 0 0 0
-0.0683905333280563354 0.0980448126792907715 -0.0866961181163787842 0 0 0 0 0 0
-0.0603098049759864807 0.106768339872360229 -0.0911953076720237732 0 0 0 0 0 0
-0.0597325973212718964 0.101644858717918396 -0.106311187148094177 0 0 0 0 0 0
-0.0690289139747619629 0.094119831919670105 -0.0965236872434616089 0 0 0 0 0 0
-0.0606904253363609314 0.110590323805809021 -0.0548404566943645477 0 0 0 0 0 0
-0.057565346360206604 0.114241659641265869 -0.0609430037438869476 0 0 0 0 0 0
-0.0589431598782539368 0.110807947814464569 -0.0771337524056434631 0 0 0 0 0 0
-0.0659258514642715454 0.104014664888381958 -0.0653243511915206909 0 0 0 0 0 0
-0.0715124532580375671 0.0909141823649406433 -0.0644857212901115417 0 0 0 0 0 0
-0.0768048316240310669 0.0729249343276023865 -0.0666652768850326538 0 0 0 0 0 0
-0.0711781904101371765 0.0880450308322906494 -0.0572828948497772217 0 0 0 0 0 0
-0.0795479416847229004 0.0523950681090354919 -0.0667025446891784668 0 0 0 0 0 0
-0.0800972729921340942 0.0141688212752342224 -0.0564262978732585907 0 0 0 0 0 0
-0.0764457434415817261 -0.0320371761918067932 -0.058706037700176239 0 0 0 0 0 0
-0.080618634819984436 -0.0169838666915893555 -0.0515650622546672821 0 0 0 0 0 0
0.064952455461025238 -0.0143943578004837036 -0.012637636624276638 0 0 0 0 0 0
-0.0780328139662742615 0.0158757083117961884 -0.0233707055449485779 0 0 0 0 0 0
-0.0762250050902366638 0.02922777459025383 -0.0268845539540052414 0 0 0 0 0 0
-0.0794317647814750671 0.0203403793275356293 -0.0365862473845481873 0 0 0 0 0 0
-0.0802366659045219421 0.00654496019706130028 -0.0329995676875114441 0 0 0 0 0 0
-0.0776626840233802795 0.0341747477650642395 -0.0403138399124145508 0 0 0 0 0 0
-0.0741889029741287231 0.0431958399713039398 -0.0301488041877746582 0 0 0 0 0 0
-0.0731343775987625122 0.0579615943133831024 -0.0332703888416290283 0 0 0 0 0 0
-0.0772649198770523071 0.0473565012216567993 -0.04517320916056633 0 0 0 0 0 0
-0.0619055256247520447 0.0506622307002544403 -0.140431523323059082 0 0 0 0 0 0
-0.0514001958072185516 0.0447900891304016113 -0.153860569000244141 0 0 0 0 0 0
-0.053379647433757782 0.0302611403167247772 -0.151628494262695312 0 0 0 0 0 0
-0.0640101730823516846 0.0407452359795570374 -0.138635337352752686 0 0 0 0 0 0
-0.047124616801738739 0.0416726171970367432 0.0192894190549850464 0 0 0 0 0 0
-0.0212901532649993896 0.0342256724834442139 -0.171628355979919434 0 0 0 0 0 0
-0.0112345246598124504 0.0774638354778289795 0.0243246853351593018 0 0 0 0 0 0
-0.00596297904849052429 0.124669551849365234 -0.116402946412563324 0 0 0 0 0 0
0.0655151158571243286 -0.0185386091470718384 -0.0604033172130584717 0 0 0 0 0 0
0.010590260848402977 0.0301810912787914276 0.0267010331153869629 0 0 0 0 0 0
-0.0136991832405328751 0.0171044245362281799 0.0684626996517181396 0 0 0 0 0 0
-0.0163412094116210938 0.127593725919723511 -0.104154907166957855 0 0 0 0 0 0
-0.0556740835309028625 0.0706856772303581238 0.000608026690315455198 0 0 0 0 0 0
-0.0117642302066087723 0.137381598353385925 -0.0648940876126289368 0 0 0 0 0 0
-0.0198733638972043991 0.120968028903007507 -0.1191134974360466 0 0 0 0 0 0
-0.0208704303950071335 0.0679814741015434265 -0.169435709714889526 0 0 0 0 0 0
-0.051781974732875824 0.0869970023632049561 -0.00556189334020018578 0 0 0 0 0 0
-0.0453809723258018494 0.0426755659282207489 0.0232628248631954193 0 0 0 0 0 0
-0.0447278469800949097 0.0881222710013389587 -0.145307645201683044 0 0 0 0 0 0
-0.052914351224899292 0.116053283214569092 -0.0787815004587173462 0 0 0 0 0 0
-0.0576607361435890198 0.0952087044715881348 -0.121418386697769165 0 0 0 0 0 0
-0.0548765771090984344 0.0878788530826568604 -0.134626984596252441 0 0 0 0 0 0
-0.0652313604950904846 0.074281938374042511 -0.129767775535583496 0 0 0 0 0 0
-0.069589659571647644 0.081729404628276825 -0.115332901477813721 0 0 0 0 0 0
-0.0535642020404338837 0.0768100917339324951 -0.145263195037841797 0 0 0 0 0 0
-0.0479290895164012909 0.0756776928901672363 -0.152316540479660034 0 0 0 0 0 0
-0.0488525331020355225 0.0603811144828796387 -0.155582532286643982 0 0 0 0 0 0
-0.0577810332179069519 0.0661784857511520386 -0.144070088863372803 0 0 0 0 0 0
-0.0514559745788574219 0.117795854806900024 -0.0667517334222793579 0 0 0 0 0 0
-0.0420208200812339783 0.0804016515612602234 -0.154675319790840149 0 0 0 0 0 0
0.00227830535732209682 0.00205158023163676262 0.0535480640828609467 0 0 0 0 0 0
0.0282916687428951263 0.0636011287569999695 0.0250451676547527313 0 0 0 0 0 0
-0.0116892186924815178 0.0383635759353637695 0.0441164299845695496 0 0 0 0 0 0
0.0643455758690834045 -0.0010820804163813591 -0.0082577783614397049 0 0 0 0 0 0
-0.00605648662894964218 0.142074435949325562 -0.0401734299957752228 0 0 0 0 0 0
-0.0102658271789550781 0.0339880362153053284 0.0505145005881786346 0 0 0 0 0 0
0.0402520895004272461 0.0324930846691131592 0.0199086591601371765 0 0 0 0 0 0
-0.0493526719510555267 0.0461123809218406677 0.0258655548095703125 0 0 0 0 0 0
-0.0325630009174346924 -0.0588930957019329071 -0.124932184815406799 0 0 0 0 0 0
-0.0539336204528808594 0.0150774447247385979 -0.148299992084503174 0 0 0 0 0 0
-0.0533690452575683594 -0.00116373342461884022 -0.142393052577972412 0 0 0 0 0 0
-0.0683892443776130676 0.00219489703886210918 -0.122488006949424744 0 0 0 0 0 0
-0.0702136009931564331 0.0197062455117702484 -0.126611918210983276 0 0 0 0 0 0
-0.0531940758228302002 0.113196313381195068 -0.0931615084409713745 0 0 0 0 0 0
-0.0514506250619888306 0.119854539632797241 -0.0540834218263626099 0 0 0 0 0 0
-0.00340423057787120342 0.00121322809718549252 0.0555670410394668579 0 0 0 0 0 0
0.0131640713661909103 0.0447260290384292603 0.0321082472801208496 0 0 0 0 0 0
-0.0669010430574417114 0.0320322811603546143 -0.00126281729899346828 0 0 0 0 0 0
-0.0630880445241928101 0.0354843400418758392 0.00471099000424146652 0 0 0 0 0 0
-0.06361427903175354 0.0393599420785903931 0.00568081391975283623 0 0 0 0 0 0
-0.0668195039033889771 0.0385719016194343567 -0.0013910138513892889 0 0 0 0 0 0
-0.0611590072512626648 0.0287168379873037338 0.00712065538391470909 0 0 0 0 0 0
-0.0620560944080352783 0.0314096808433532715 0.00553163653239607811 0 0 0 0 0 0
-0.063838467001914978 0.0291117988526821136 0.00350102665834128857 0 0 0 0 0 0
-0.0630849823355674744 0.0260295718908309937 0.00601194333285093307 0 0 0 0 0 0
0.0568942129611968994 0.0434466525912284851 -0.155339524149894714 0 0 0 0 0 0
-0.0286030974239110947 0.0941254943609237671 -0.151868730783462524 0 0 0 0 0 0
-0.024242570623755455 0.0249263159930706024 0.0370498672127723694 0 0 0 0 0 0
-0.0230947695672512054 0.0277299918234348297 0.0349293649196624756 0 0 0 0 0 0
-0.0262280013412237167 0.0210509505122900009 0.0378656722605228424 0 0 0 0 0 0
-0.0240510553121566772 0.0207350905984640121 0.0421322807669639587 0 0 0 0 0 0
-0.0233204923570156097 0.0241095982491970062 0.0406971648335456848 0 0 0 0 0 0
-0.0231671910732984543 0.0191044174134731293 0.046053469181060791 0 0 0 0 0 0
-0.028703596442937851 0.00196764618158340454 0.0445767864584922791 0 0 0 0 0 0
-0.0272343158721923828 -0.00057483965065330267 0.0472446195781230927 0 0 0 0 0 0
-0.028052210807800293 -0.00159747840370982885 0.0431672744452953339 0 0 0 0 0 0
-0.0297194849699735641 0.000126565806567668915 0.0409303419291973114 0 0 0 0 0 0
-0.028477964922785759 0.00460509583353996277 0.0420131459832191467 0 0 0 0 0 0
-0.0297202300280332565 0.0124620487913489342 0.0378771685063838959 0 0 0 0 0 0
-0.0305436141788959503 0.0157036669552326202 0.0357499197125434875 0 0 0 0 0 0
-0.0288544744253158569 0.00871641933917999268 0.0396892428398132324 0 0 0 0 0 0
-0.0274894367903470993 0.00827933382242918015 0.0469846576452255249 0 0 0 0 0 0
-0.0251511633396148682 0.0118675446137785912 0.0540887229144573212 0 0 0 0 0 0
-0.0251715891063213348 0.00929288566112518311 0.0574272237718105316 0 0 0 0 0 0
-0.0276817008852958679 0.00638340180739760399 0.052500598132610321 0 0 0 0 0 0
-0.0235277973115444183 0.0159486308693885803 0.0490014180541038513 0 0 0 0 0 0
-0.0258215852081775665 0.0122472699731588364 0.0449656955897808075 0 0 0 0 0 0
-0.0158717408776283264 0.0238176211714744568 0.0591298863291740417 0 0 0 0 0 0
-0.0220044031739234924 0.0178391896188259125 0.0541488192975521088 0 0 0 0 0 0
-0.0166956447064876556 0.0191659629344940186 0.0645112916827201843 0 0 0 0 0 0
-0.0227575525641441345 0.0146671310067176819 0.0581396035850048065 0 0 0 0 0 0
-0.0262657385319471359 0.0130518591031432152 0.0420533865690231323 0 0 0 0 0 0
-0.0266490206122398376 0.0162056609988212585 0.0400004833936691284 0 0 0 0 0 0
-0.0278109237551689148 0.0236461646854877472 0.0320278555154800415 0 0 0 0 0 0
-0.0275160856544971466 0.0218226369470357895 0.0345533415675163269 0 0 0 0 0 0
-0.0279315542429685593 0.0830728039145469666 -0.160693034529685974 0 0 0 0 0 0
-0.0673735663294792175 0.0152044631540775299 0.00851517636328935623 0 0 0 0 0 0
-0.0298147350549697876 0.0193509981036186218 0.0339356251060962677 0 0 0 0 0 0
-0.0320890806615352631 0.0215285457670688629 0.0303507857024669647 0 0 0 0 0 0
-0.0353780686855316162 0.000261404551565647125 0.0386084392666816711 0 0 0 0 0 0
-0.0316056236624717712 0.00442778272554278374 0.0387580655515193939 0 0 0 0 0 0
-0.0377356819808483124 0.00537406653165817261 0.0367068499326705933 0 0 0 0 0 0
-0.0334240011870861053 0.0089735155925154686 0.036969207227230072 0 0 0 0 0 0
-0.0346296019852161407 0.0129622016102075577 0.0346450395882129669 0 0 0 0 0 0
-0.039110235869884491 0.0100737866014242172 0.0340709947049617767 0 0 0 0 0 0
-0.0395887121558189392 -0.00415866216644644737 0.0385237820446491241 0 0 0 0 0 0
-0.046264253556728363 -0.0142185976728796959 0.0370525270700454712 0 0 0 0 0 0
-0.0495123565196990967 -0.00918868463486433029 0.0338493101298809052 0 0 0 0 0 0
-0.0521116852760314941 -0.00350223248824477196 0.030497472733259201 0 0 0 0 0 0
-0.0481843166053295135 0.00225794804282486439 0.0323052629828453064 0 0 0 0 0 0
-0.0461470186710357666 -0.00335695012472569942 0.0353546142578125 0 0 0 0 0 0
-0.0400765985250473022 0.0140195749700069427 0.0312993898987770081 0 0 0 0 0 0
-0.0395530164241790771 0.0181274786591529846 0.0292610432952642441 0 0 0 0 0 0
-0.0496523007750511169 0.0131678804755210876 0.0264322515577077866 0 0 0 0 0 0
-0.0493102073669433594 0.0076158805750310421 0.0292307622730731964 0 0 0 0 0 0
-0.0538521185517311096 0.00280160899274051189 0.0272341351956129074 0 0 0 0 0 0
-0.054302699863910675 0.00993918627500534058 0.0244781654328107834 0 0 0 0 0 0
-0.0595070421695709229 0.00514602568000555038 0.0209227502346038818 0 0 0 0 0 0
0.0261435024440288544 0.039697255939245224 0.0284514129161834717 0 0 0 0 0 0
0.0380681827664375305 0.0362596884369850159 0.0182803943753242493 0 0 0 0 0 0
0.00103999488055706024 0.00721942959353327751 0.0645258650183677673 0 0 0 0 0 0
-0.0584094449877738953 0.0142757510766386986 0.0196563396602869034 0 0 0 0 0 0
-0.034043487161397934 0.0169119983911514282 0.0324757993221282959 0 0 0 0 0 0
-0.0349082276225090027 0.0196848399937152863 0.0302634593099355698 0 0 0 0 0 0
-0.028829505667090416 0.0103377355262637138 -0.164485186338424683 0 0 0 0 0 0
-0.0238704383373260498 -0.0757478326559066772 -0.12482134997844696 0 0 0 0 0 0
-0.0365040004253387451 0.0241252388805150986 0.0269400235265493393 0 0 0 0 0 0
-0.0379720777273178101 0.0272842906415462494 0.0251001846045255661 0 0 0 0 0 0
-0.0424533486366271973 0.0267716199159622192 0.0239853225648403168 0 0 0 0 0 0
-0.0411305315792560577 0.0232666917145252228 0.0259418189525604248 0 0 0 0 0 0
-0.0496482253074645996 0.0180794000625610352 0.0241587013006210327 0 0 0 0 0 0
-0.054766681045293808 0.0349877700209617615 0.0150701319798827171 0 0 0 0 0 0
-0.0575599484145641327 0.0312004890292882919 0.0116572268307209015 0 0 0 0 0 0
-0.0596705228090286255 0.019093802198767662 0.0161026455461978912 0 0 0 0 0 0
-0.0575804226100444794 0.0260512940585613251 0.0135475164279341698 0 0 0 0 0 0
-0.0593115314841270447 0.0266841351985931396 0.0109323635697364807 0 0 0 0 0 0
-0.0625798776745796204 0.0195166673511266708 0.0124593321233987808 0 0 0 0 0 0
-0.0491509288549423218 0.0261864345520734787 0.020962035283446312 0 0 0 0 0 0
-0.0485894158482551575 0.0217202436178922653 0.0231665726751089096 0 0 0 0 0 0
-0.0532388612627983093 0.0206158235669136047 0.0206389222294092178 0 0 0 0 0 0
-0.0519864186644554138 0.0260044895112514496 0.0190227087587118149 0 0 0 0 0 0
-0.0554260760545730591 0.0258922185748815536 0.0160445570945739746 0 0 0 0 0 0
-0.0571062490344047546 0.0195411108434200287 0.0181980803608894348 0 0 0 0 0 0
-0.0351431816816329956 0.0284407641738653183 0.0251672565937042236 0 0 0 0 0 0
-0.032450258731842041 0.026884615421295166 0.0263657867908477783 0 0 0 0 0 0
-0.0306289549916982651 0.0298483744263648987 0.0250781457871198654 0 0 0 0 0 0
-0.027881912887096405 0.0286070406436920166 0.0266702249646186829 0 0 0 0 0 0
-0.0670377463102340698 -0.0406300649046897888 -0.0859119817614555359 0 0 0 0 0 0
-0.0672093182802200317 -0.0758960098028182983 -0.068719327449798584 0 0 0 0 0 0
-0.0535270534455776215 0.035382881760597229 0.0113719534128904343 0 0 0 0 0 0
-0.0557990334928035736 0.0328166857361793518 0.0143498098477721214 0 0 0 0 0 0
-0.0596375688910484314 0.0281823333352804184 0.0097376825287938118 0 0 0 0 0 0
-0.0336685702204704285 -0.0353284925222396851 0.0425374321639537811 0 0 0 0 0 0
-0.0358507893979549408 -0.0406152456998825073 0.0353023409843444824 0 0 0 0 0 0
-0.0234651081264019012 -0.123949900269508362 -0.00129429763182997704 0 0 0 0 0 0
0.0752853080630302429 -0.00448090583086013794 -0.0611098706722259521 0 0 0 0 0 0
0.0472639277577400208 0.119875088334083557 -0.0802859514951705933 0 0 0 0 0 0
-0.0150532703846693039 0.0268939584493637085 0.0556242913007736206 0 0 0 0 0 0
-0.0210272744297981262 0.0221098214387893677 0.0497535876929759979 0 0 0 0 0 0
-0.0142346266657114029 0.032487720251083374 0.0491140186786651611 0 0 0 0 0 0
-0.0204663537442684174 0.0265177562832832336 0.0447189211845397949 0 0 0 0 0 0
-0.020644407719373703 0.0240185186266899109 0.0477993786334991455 0 0 0 0 0 0
-0.0144974803552031517 0.0298469588160514832 0.0521285831928253174 0 0 0 0 0 0
0.0192249547690153122 0.0842489525675773621 0.0167303867638111115 0 0 0 0 0 0
0.00792578421533107758 0.032240450382232666 0.0258503388613462448 0 0 0 0 0 0
0.0129874637350440025 0.0367401950061321259 0.0244617071002721786 0 0 0 0 0 0
0.0100180841982364655 -0.0388706400990486145 0.0445655882358551025 0 0 0 0 0 0
-0.00880350265651941299 0.119697108864784241 -0.00950650405138731003 0 0 0 0 0 0
-0.0101515911519527435 0.103685162961483002 0.00305502372793853283 0 0 0 0 0 0
-0.023287896066904068 0.0427490174770355225 0.025288781151175499 0 0 0 0 0 0
-0.0198568683117628098 0.043150879442691803 0.0280791129916906357 0 0 0 0 0 0
-0.022724982351064682 0.045275568962097168 0.0296212136745452881 0 0 0 0 0 0
-0.0269472859799861908 0.0448384694755077362 0.0272231251001358032 0 0 0 0 0 0
0.054776366800069809 -0.111208632588386536 -0.0970925837755203247 0 0 0 0 0 0
-0.0188922416418790817 0.0340005159378051758 0.0345937758684158325 0 0 0 0 0 0
-0.0248657818883657455 0.0319832488894462585 0.0250908322632312775 0 0 0 0 0 0
-0.0238941740244626999 0.030944477766752243 0.0270123835653066635 0 0 0 0 0 0
-0.0206994302570819855 0.0364336222410202026 0.0246637947857379913 0 0 0 0 0 0
-0.0225032772868871689 0.0337575860321521759 0.0248799249529838562 0 0 0 0 0 0
-0.0212990976870059967 0.0333265364170074463 0.0273850113153457642 0 0 0 0 0 0
-0.0189457349479198456 0.0366366133093833923 0.028433777391910553 0 0 0 0 0 0
-0.0208249855786561966 0.0408500619232654572 0.0252792909741401672 0 0 0 0 0 0
-0.02034807950258255 0.0384248308837413788 0.0247729551047086716 0 0 0 0 0 0
-0.0182969365268945694 0.0388553440570831299 0.0289367549121379852 0 0 0 0 0 0
-0.0182123463600873947 0.041223376989364624 0.0294263660907745361 0 0 0 0 0 0
-0.0129858590662479401 0.0437121205031871796 0.0375746786594390869 0 0 0 0 0 0
-0.0689285025000572205 0.0175596438348293304 0.00412462558597326279 0 0 0 0 0 0
-0.0144294742494821548 0.133222609758377075 -0.0799857005476951599 0 0 0 0 0 0
-0.0148582225665450096 0.0487747117877006531 0.0359840989112854004 0 0 0 0 0 0
-0.0371252000331878662 0.0767849832773208618 0.0155494268983602524 0 0 0 0 0 0
-0.0312900841236114502 0.11156974732875824 -0.127676725387573242 0 0 0 0 0 0
-0.0293935444205999374 0.103707373142242432 -0.140994787216186523 0 0 0 0 0 0
0.0591545701026916504 0.0707545801997184753 -0.0225544385612010956 0 0 0 0 0 0
-0.0214331261813640594 0.0548069104552268982 0.0350627973675727844 0 0 0 0 0 0
-0.0232326686382293701 0.0609694533050060272 0.0330773405730724335 0 0 0 0 0 0
-0.0406751818954944611 0.0598224103450775146 0.025049140676856041 0 0 0 0 0 0
-0.0394319221377372742 0.0534028634428977966 0.0291815381497144699 0 0 0 0 0 0
-0.0263827405869960785 0.047570839524269104 0.0315915010869503021 0 0 0 0 0 0
-0.0322508811950683594 0.0471278391778469086 0.0296541675925254822 0 0 0 0 0 0
-0.0472839623689651489 0.111401602625846863 -0.110075145959854126 0 0 0 0 0 0
-0.0505546554923057556 0.0607925578951835632 0.0154762435704469681 0 0 0 0 0 0
-0.0504111871123313904 0.0496430657804012299 0.0248025096952915192 0 0 0 0 0 0
-0.0639098808169364929 0.0669090449810028076 -0.0118939671665430069 0 0 0 0 0 0
-0.0591321699321269989 0.0749522224068641663 -0.00800068024545907974 0 0 0 0 0 0
-0.0613026022911071777 0.081034243106842041 -0.0175813660025596619 0 0 0 0 0 0
-0.0642166733741760254 0.0731784552335739136 -0.0173743497580289841 0 0 0 0 0 0
-0.059370093047618866 0.0592553131282329559 0.00308896112255752087 0 0 0 0 0 0
-0.0593359470367431641 0.0515784136950969696 0.0132829388603568077 0 0 0 0 0 0
-0.0564377419650554657 0.0535484626889228821 0.0157432612031698227 0 0 0 0 0 0
-0.0548218414187431335 0.0644125789403915405 0.00648616906255483627 0 0 0 0 0 0
-0.0656332969665527344 0.0470295548439025879 -0.000137944400194101036 0 0 0 0 0 0
-0.0633105933666229248 0.0441090278327465057 0.00822938699275255203 0 0 0 0 0 0
-0.0620854869484901428 0.0481121465563774109 0.0104805398732423782 0 0 0 0 0 0
-0.0629721283912658691 0.0534668043255805969 0.00122608407400548458 0 0 0 0 0 0
-0.0724278390407562256 0.0427899584174156189 -0.022624671459197998 0 0 0 0 0 0
-0.0694603770971298218 0.0455991625785827637 -0.0138734607025980949 0 0 0 0 0 0
-0.0671359151601791382 0.0568906888365745544 -0.0138884298503398895 0 0 0 0 0 0
-0.0706111788749694824 0.0571784302592277527 -0.0242851357907056808 0 0 0 0 0 0
0.0776580795645713806 0.0377379320561885834 -0.0550298243761062622 0 0 0 0 0 0
-0.0761791616678237915 0.0177440810948610306 -0.0162796415388584137 0 0 0 0 0 0
-0.0728196054697036743 0.0246429052203893661 -0.00984528008848428726 0 0 0 0 0 0
-0.0712827742099761963 0.034737762063741684 -0.0126199079677462578 0 0 0 0 0 0
-0.0745622441172599792 0.0297963079065084457 -0.019958222284913063 0 0 0 0 0 0
0.0462655238807201385 -0.12567448616027832 -0.0257675647735595703 0 0 0 0 0 0
0.00917414762079715729 0.0429935120046138763 0.0291484054177999496 0 0 0 0 0 0
-0.0040629957802593708 0.0265910979360342026 0.0566047430038452148 0 0 0 0 0 0
0.0806957259774208069 -0.03617815300822258 -0.064810633659362793 0 0 0 0 0 0
0.0716019272804260254 -0.0116865653544664383 -0.0415087416768074036 0 0 0 0 0 0
-0.0525273382663726807 0.104222193360328674 -0.0309917163103818893 0 0 0 0 0 0
-0.052994798868894577 0.0988707765936851501 -0.0227344334125518799 0 0 0 0 0 0
0.0806396454572677612 0.0208329185843467712 -0.0660979598760604858 0 0 0 0 0 0
-0.053858339786529541 0.0163153670728206635 0.022309962660074234 0 0 0 0 0 0
0.0795697718858718872 0.0152711402624845505 -0.0703647881746292114 0 0 0 0 0 0
0.0190254151821136475 -0.0842500552535057068 -0.123293511569499969 0 0 0 0 0 0
-0.0454880893230438232 0.124514184892177582 -0.0534970723092556 0 0 0 0 0 0
-0.0457650423049926758 0.12120431661605835 -0.0446841828525066376 0 0 0 0 0 0
-0.0250189080834388733 0.133605882525444031 -0.029935494065284729 0 0 0 0 0 0
-0.0246721319854259491 0.139197006821632385 -0.0413268581032752991 0 0 0 0 0 0
-0.0461434349417686462 0.115582704544067383 -0.0362445712089538574 0 0 0 0 0 0
-0.0471333973109722137 0.10939885675907135 -0.0282438304275274277 0 0 0 0 0 0
-0.0386850833892822266 0.113781869411468506 -0.0216962806880474091 0 0 0 0 0 0
-0.0378755182027816772 0.121548555791378021 -0.0298707857728004456 0 0 0 0 0 0
-0.0477123260498046875 0.103664480149745941 -0.0205652788281440735 0 0 0 0 0 0
-0.0477771572768688202 0.0981304645538330078 -0.0125289112329483032 0 0 0 0 0 0
-0.0393699333071708679 0.101120412349700928 -0.00637475913390517235 0 0 0 0 0 0
-0.0390933789312839508 0.107136085629463196 -0.0140813589096069336 0 0 0 0 0 0
-0.0549744218587875366 0.110063932836055756 -0.0443962179124355316 0 0 0 0 0 0
-0.049954146146774292 0.103913985192775726 -0.119834005832672119 0 0 0 0 0 0
-0.0472888648509979248 0.0918691158294677734 -0.00416710041463375092 0 0 0 0 0 0
-0.0462194643914699554 0.0839231014251708984 0.00388339976780116558 0 0 0 0 0 0
-0.0383679419755935669 0.0856696814298629761 0.00943181663751602173 0 0 0 0 0 0
-0.0392477437853813171 0.0944150239229202271 0.00176199560519307852 0 0 0 0 0 0
-0.0666167959570884705 0.0485231988131999969 -0.00611195061355829239 0 0 0 0 0 0
-0.0133563308045268059 0.0418023876845836639 0.0382803305983543396 0 0 0 0 0 0
0.00669772736728191376 0.0412687249481678009 0.0272619035094976425 0 0 0 0 0 0
0.0413191542029380798 0.0358661450445652008 0.0237236525863409042 0 0 0 0 0 0
-0.0518202707171440125 0.0736503750085830688 0.00416814675554633141 0 0 0 0 0 0
-0.0460959039628505707 0.0428281202912330627 0.0263875257223844528 0 0 0 0 0 0
-0.0401223599910736084 0.024143461138010025 -0.161564856767654419 0 0 0 0 0 0
0.00334503385238349438 -0.000419203832279890776 0.0546747446060180664 0 0 0 0 0 0
0.0767019093036651611 0.00838677212595939636 -0.0624569915235042572 0 0 0 0 0 0
-0.0550836175680160522 0.115612447261810303 -0.0516090318560600281 0 0 0 0 0 0
-0.0807045921683311462 0.0469762906432151794 -0.0790153741836547852 0 0 0 0 0 0
-0.0619018003344535828 -0.0868024230003356934 -0.080731123685836792 0 0 0 0 0 0
-0.0473539680242538452 0.0414091795682907104 0.0228194110095500946 0 0 0 0 0 0
-0.0507517755031585693 -0.076271742582321167 -0.101738110184669495 0 0 0 0 0 0
-0.0612495690584182739 -0.0752730071544647217 -0.0853380784392356873 0 0 0 0 0 0
-0.0599724277853965759 -0.0623045116662979126 -0.0914997756481170654 0 0 0 0 0 0
-0.0481219813227653503 -0.0636301040649414062 -0.108363062143325806 0 0 0 0 0 0
-0.0528753064572811127 0.0936079621315002441 -0.0144382957369089127 0 0 0 0 0 0
-0.0341416671872138977 -0.0451265536248683929 -0.130804941058158875 0 0 0 0 0 0
0.0802196934819221497 0.0119113828986883163 -0.0719973072409629822 0 0 0 0 0 0
-0.0170368216931819916 0.0837527364492416382 0.0195703767240047455 0 0 0 0 0 0
-0.0183370709419250488 0.0633192360401153564 0.0329851508140563965 0 0 0 0 0 0
0.0678200870752334595 -0.0328850895166397095 -0.0579464547336101532 0 0 0 0 0 0
-0.0087479613721370697 -0.0628904551267623901 -0.131787568330764771 0 0 0 0 0 0
0.0334317833185195923 0.030319487676024437 0.0256593134254217148 0 0 0 0 0 0
-0.00922024529427289963 -0.0750317424535751343 -0.129089996218681335 0 0 0 0 0 0
-0.0679565295577049255 -0.0618398301303386688 -0.0730932429432868958 0 0 0 0 0 0
-0.0796670839190483093 0.0277638994157314301 -0.0543175861239433289 0 0 0 0 0 0
-0.00317008374258875847 0.0629099905490875244 0.0342207774519920349 0 0 0 0 0 0
-0.00944733899086713791 -0.0881556421518325806 -0.127477109432220459 0 0 0 0 0 0
0.0392517298460006714 0.0331647545099258423 0.0184185877442359924 0 0 0 0 0 0
-0.0170822329819202423 0.0088723059743642807 0.0564016923308372498 0 0 0 0 0 0
-0.0215279292315244675 0.00290033919736742973 0.0504243895411491394 0 0 0 0 0 0
-0.0167668424546718597 0.0103000542148947716 0.0541941635310649872 0 0 0 0 0 0
0.0777929127216339111 -0.136565536260604858 -0.0671965554356575012 0 0 0 0 0 0
-0.0178926959633827209 0.0109505746513605118 0.0508599095046520233 0 0 0 0 0 0
-0.0171492937952280045 0.0113349584862589836 0.0516246333718299866 0 0 0 0 0 0
-0.017558341845870018 0.0112047959119081497 0.051617797464132309 0 0 0 0 0 0
-0.0178855638951063156 0.0104264719411730766 0.0499335154891014099 0 0 0 0 0 0
-0.0166775565594434738 0.0110145937651395798 0.0511692613363265991 0 0 0 0 0 0
-0.015705350786447525 0.00938275828957557678 0.0506398826837539673 0 0 0 0 0 0
-0.0173276849091053009 0.00163143628742545843 0.0543275177478790283 0 0 0 0 0 0
-0.0166389793157577515 0.00281166424974799156 0.0621697008609771729 0 0 0 0 0 0
-0.0163937956094741821 0.00446925265714526176 0.0600462369620800018 0 0 0 0 0 0
-0.018034808337688446 0.00212468556128442287 0.0517257526516914368 0 0 0 0 0 0
-0.016992056742310524 0.0043656742200255394 0.050363488495349884 0 0 0 0 0 0
-0.0204452276229858398 0.00549658667296171188 0.0574001632630825043 0 0 0 0 0 0
-0.0194724462926387787 0.00470658531412482262 0.0623509064316749573 0 0 0 0 0 0
0.0783839449286460876 -0.0228301137685775757 -0.0589346103370189667 0 0 0 0 0 0
0.0744455605745315552 -0.0227289609611034393 -0.0540205799043178558 0 0 0 0 0 0
-0.0758482441306114197 -0.011671748012304306 -0.066665351390838623 0 0 0 0 0 0
-0.0787741392850875854 -0.0279689095914363861 -0.0543773286044597626 0 0 0 0 0 0
-0.0799393504858016968 -0.0244848933070898056 -0.0519938170909881592 0 0 0 0 0 0
-0.080839596688747406 0.0263270791620016098 -0.0898025482892990112 0 0 0 0 0 0
-0.0786614343523979187 0.0129869598895311356 -0.0983171015977859497 0 0 0 0 0 0
-0.0805319100618362427 0.0153711568564176559 -0.0744271576404571533 0 0 0 0 0 0
-0.0782345980405807495 0.00167245452757924795 -0.0933436676859855652 0 0 0 0 0 0
-0.0803003013134002686 0.0238377675414085388 -0.0597014687955379486 0 0 0 0 0 0
0.0842698439955711365 0.0168265067040920258 -0.0759810060262680054 0 0 0 0 0 0
-0.0810523331165313721 0.0431056693196296692 -0.0891401618719100952 0 0 0 0 0 0
0.0922297090291976929 0.00748887285590171814 -0.0804628282785415649 0 0 0 0 0 0
-0.0213166605681180954 -0.0385695584118366241 0.0466793850064277649 0 0 0 0 0 0
-0.00423004012554883957 -0.0195955578237771988 0.0617134496569633484 0 0 0 0 0 0
0.0837346464395523071 -0.00647892942652106285 -0.0798264592885971069 0 0 0 0 0 0
0.0877528414130210876 -0.021840263158082962 -0.0747421160340309143 0 0 0 0 0 0
-0.0645182803273200989 -0.0953327342867851257 -0.068698100745677948 0 0 0 0 0 0
0.0778878778219223022 0.00934638828039169312 -0.0657783448696136475 0 0 0 0 0 0
0.0344943851232528687 0.00265853176824748516 0.0323880687355995178 0 0 0 0 0 0
0.0856569036841392517 0.0162556134164333344 -0.0701826885342597961 0 0 0 0 0 0
-0.0601908676326274872 -0.0928420647978782654 -0.0835195407271385193 0 0 0 0 0 0
0.0772858411073684692 0.00719780055806040764 -0.0613068714737892151 0 0 0 0 0 0
-0.00082125829067081213 0.0134977381676435471 0.0665887519717216492 0 0 0 0 0 0
0.0570352748036384583 0.0949562042951583862 -0.0317996218800544739 0 0 0 0 0 0
-0.0562705174088478088 -0.094756782054901123 -0.0917789936065673828 0 0 0 0 0 0
-0.00297007779590785503 -0.0632060393691062927 0.0532358996570110321 0 0 0 0 0 0
-0.00139619526453316212 0.0105418693274259567 0.0525493919849395752 0 0 0 0 0 0
-0.00138259702362120152 0.010616048239171505 0.0530209466814994812 0 0 0 0 0 0
-0.00233904365450143814 0.0109773539006710052 0.0531492047011852264 0 0 0 0 0 0
-0.0653829798102378845 -0.0917714983224868774 -0.0485283732414245605 0 0 0 0 0 0
0.098716244101524353 -0.137384384870529175 -0.0883155763149261475 0 0 0 0 0 0
0.00903359055519104004 -0.174243837594985962 -0.154482662677764893 0 0 0 0 0 0
0.0638165399432182312 -0.148633986711502075 -0.0384314283728599548 0 0 0 0 0 0
0.0436344444751739502 -0.15577976405620575 -0.0197196397930383682 0 0 0 0 0 0
0.0608966648578643799 -0.119158588349819183 -0.102625034749507904 0 0 0 0 0 0
0.0471544563770294189 -0.131029367446899414 -0.0268392637372016907 0 0 0 0 0 0
0.0262589342892169952 -0.150339528918266296 -0.00981724262237548828 0 0 0 0 0 0
0.0111815920099616051 -0.144014179706573486 -0.00444455258548259735 0 0 0 0 0 0
0.0258073713630437851 -0.143670737743377686 -0.141683042049407959 0 0 0 0 0 0
0.0335611701011657715 -0.164099633693695068 -0.00976779498159885406 0 0 0 0 0 0
0.0819146856665611267 -0.132399395108222961 -0.109559401869773865 0 0 0 0 0 0
0.075426153838634491 -0.142352044582366943 -0.0553468614816665649 0 0 0 0 0 0
0.0622993409633636475 -0.119655221700668335 -0.0791225433349609375 0 0 0 0 0 0
0.065613575279712677 -0.137067258358001709 -0.0542992874979972839 0 0 0 0 0 0
0.039995826780796051 -0.134968459606170654 -0.13257443904876709 0 0 0 0 0 0
0.056533224880695343 -0.141262024641036987 -0.0373701155185699463 0 0 0 0 0 0
0.0823285877704620361 -0.145829260349273682 -0.0543692484498023987 0 0 0 0 0 0
0.0271862130612134933 -0.159249216318130493 -0.00903947465121746063 0 0 0 0 0 0
0.0751880630850791931 -0.161597758531570435 -0.0286904610693454742 0 0 0 0 0 0
0.0357562974095344543 -0.172032520174980164 -0.00231149187311530113 0 0 0 0 0 0
0.0879746899008750916 -0.153165072202682495 -0.13400384783744812 0 0 0 0 0 0
0.0554842762649059296 -0.169350117444992065 -0.151899144053459167 0 0 0 0 0 0
0.0740063786506652832 -0.155782759189605713 -0.140336960554122925 0 0 0 0 0 0
0.107468537986278534 -0.143021553754806519 -0.108689188957214355 0 0 0 0 0 0
0.0381017401814460754 -0.157605260610580444 -0.147559270262718201 0 0 0 0 0 0
0.0526379942893981934 -0.153797805309295654 -0.143460676074028015 0 0 0 0 0 0
0.0103873806074261665 -0.136430740356445312 -0.00325329788029193878 0 0 0 0 0 0
0.0935597866773605347 -0.138543829321861267 -0.111811064183712006 0 0 0 0 0 0
0.0778425484895706177 -0.144739836454391479 -0.12908405065536499 0 0 0 0 0 0
0.0130621567368507385 -0.178815528750419617 0.00718332454562187195 0 0 0 0 0 0
0.00925913266837596893 -0.160957738757133484 -0.150832206010818481 0 0 0 0 0 0
0.00257157301530241966 -0.159215137362480164 -0.0037545494269579649 0 0 0 0 0 0
0.0108241662383079529 -0.112031511962413788 -0.127908557653427124 0 0 0 0 0 0
0.0348816625773906708 -0.113059625029563904 -0.119123592972755432 0 0 0 0 0 0
0.069815509021282196 -0.163339957594871521 -0.14682362973690033 0 0 0 0 0 0
0.00271537899971008301 -0.177834868431091309 0.0046568065881729126 0 0 0 0 0 0
-0.00227378658019006252 -0.138536125421524048 -0.00163249799516052008 0 0 0 0 0 0
0.0389589704573154449 -0.16543424129486084 -0.151367545127868652 0 0 0 0 0 0
0.072725147008895874 -0.13140520453453064 -0.0722285807132720947 0 0 0 0 0 0
0.0714145749807357788 -0.126112759113311768 -0.0834410935640335083 0 0 0 0 0 0
0.0577299743890762329 -0.11483832448720932 -0.0553803965449333191 0 0 0 0 0 0
0.0378285795450210571 -0.138099461793899536 -0.0174910314381122589 0 0 0 0 0 0
0.0290250778198242188 -0.138083547353744507 -0.011259002611041069 0 0 0 0 0 0
0.0840375050902366638 -0.160186201333999634 -0.141126692295074463 0 0 0 0 0 0
0.0435633286833763123 -0.142210468649864197 -0.0225504636764526367 0 0 0 0 0 0
0.0143651515245437622 -0.147966921329498291 -0.145282939076423645 0 0 0 0 0 0
0.0121363513171672821 -0.136491477489471436 -0.140420466661453247 0 0 0 0 0 0
0.00223444821313023567 -0.142699524760246277 -0.00300643034279346466 0 0 0 0 0 0
0.0170742273330688477 -0.166398197412490845 -0.00253168004564940929 0 0 0 0 0 0
-0.0019552216399461031 -0.154026120901107788 -0.0043581835925579071 0 0 0 0 0 0
0.0585861019790172577 -0.158789440989494324 -0.145656287670135498 0 0 0 0 0 0
0.102442428469657898 -0.144317418336868286 -0.0704603418707847595 0 0 0 0 0 0
0.090739324688911438 -0.153341338038444519 -0.0482144169509410858 0 0 0 0 0 0
0.0558984540402889252 -0.167725890874862671 -0.0135207688435912132 0 0 0 0 0 0
0.0290542468428611755 -0.136334538459777832 -0.136561378836631775 0 0 0 0 0 0
0.0689732357859611511 -0.123567447066307068 -0.101890161633491516 0 0 0 0 0 0
0.0167962424457073212 -0.157618552446365356 -0.0052782534621655941 0 0 0 0 0 0
0.0557937175035476685 -0.12783360481262207 -0.042128346860408783 0 0 0 0 0 0
0.00259278132580220699 -0.168534129858016968 -0.00151037122122943401 0 0 0 0 0 0
0.0545805208384990692 -0.121745012700557709 -0.0401979386806488037 0 0 0 0 0 0
0.0576160363852977753 -0.0997926890850067139 -0.0561238005757331848 0 0 0 0 0 0
0.0203362870961427689 -0.109342560172080994 -0.124469920992851257 0 0 0 0 0 0
0.0236864350736141205 -0.133797407150268555 -0.00833175331354141235 0 0 0 0 0 0
0.0834112316370010376 0.0445975139737129211 -0.0758831128478050232 0 0 0 0 0 0
0.0769870206713676453 0.000302415050100535154 -0.087972395122051239 0 0 0 0 0 0
-0.0019353360403329134 -0.0396642535924911499 0.0477651767432689667 0 0 0 0 0 0
0.0833313092589378357 0.0193916633725166321 -0.0724033042788505554 0 0 0 0 0 0
0.019193064421415329 -0.0973030328750610352 -0.122959911823272705 0 0 0 0 0 0
0.0366180166602134705 -0.0979992374777793884 -0.112230084836483002 0 0 0 0 0 0
0.0467018410563468933 -0.0988392159342765808 -0.100021108984947205 0 0 0 0 0 0
0.0529738515615463257 -0.10031890869140625 -0.0860616788268089294 0 0 0 0 0 0
0.0557687245309352875 -0.101705007255077362 -0.0769915357232093811 0 0 0 0 0 0
0.0575402677059173584 -0.105014316737651825 -0.0607339441776275635 0 0 0 0 0 0
0.0557873472571372986 -0.108139500021934509 -0.0444993302226066589 0 0 0 0 0 0
0.070830024778842926 -0.0202510803937911987 -0.0542570054531097412 0 0 0 0 0 0
0.0142693724483251572 -0.126751884818077087 -0.00277681136503815651 0 0 0 0 0 0
-0.00213285931386053562 0.00668619899079203606 0.0505818352103233337 0 0 0 0 0 0
-0.00279238726943731308 0.00753945764154195786 0.05107918381690979 0 0 0 0 0 0
0.0573437325656414032 -0.054054945707321167 -0.0101708117872476578 0 0 0 0 0 0
0.0632155463099479675 -0.0449201539158821106 -0.0185597911477088928 0 0 0 0 0 0
0.0171020478010177612 -0.0787793025374412537 0.0376900732517242432 0 0 0 0 0 0
-0.00693146418780088425 -0.0812656432390213013 0.0495787560939788818 0 0 0 0 0 0
0.01414509117603302 -0.0674779042601585388 0.0431808754801750183 0 0 0 0 0 0
0.00259903213009238243 -0.0869885087013244629 0.0419532172381877899 0 0 0 0 0 0
0.0177255794405937195 -0.0851405858993530273 0.0300878733396530151 0 0 0 0 0 0
0.044059358537197113 -0.0729528963565826416 0.00404851930215954781 0 0 0 0 0 0
0.0512604415416717529 -0.0661967247724533081 -0.00694663915783166885 0 0 0 0 0 0
0.0646783038973808289 -0.0468038544058799744 -0.0258099138736724854 0 0 0 0 0 0
0.0678072348237037659 -0.0384239107370376587 -0.0357762947678565979 0 0 0 0 0 0
-0.00389269180595874786 -0.0579975061118602753 0.0526300519704818726 0 0 0 0 0 0
0.0589817613363265991 -0.0570334754884243011 -0.0170550234615802765 0 0 0 0 0 0
0.0274260491132736206 -0.0810490399599075317 0.0238800402730703354 0 0 0 0 0 0
0.0165987461805343628 -0.0544640384614467621 0.0416993945837020874 0 0 0 0 0 0
0.0254564639180898666 -0.0458871051669120789 0.0395571403205394745 0 0 0 0 0 0
0.0243514701724052429 -0.0334490872919559479 0.0428450554609298706 0 0 0 0 0 0
0.0331035852432250977 -0.0301590990275144577 0.0352806895971298218 0 0 0 0 0 0
0.0376649945974349976 -0.026310039684176445 0.0307023227214813232 0 0 0 0 0 0
0.0231504198163747787 -0.0275068562477827072 0.0437512099742889404 0 0 0 0 0 0
0.0316689908504486084 -0.0208512302488088608 0.0371746495366096497 0 0 0 0 0 0
0.0356703028082847595 -0.0157678611576557159 0.033426329493522644 0 0 0 0 0 0
0.00189405109267681837 -0.091120108962059021 0.036675523966550827 0 0 0 0 0 0
0.00901180226355791092 -0.0908288359642028809 0.032065756618976593 0 0 0 0 0 0
0.0403118543326854706 -0.0815379470586776733 0.00160594470798969269 0 0 0 0 0 0
0.0578181594610214233 -0.0641937851905822754 -0.0224805288016796112 0 0 0 0 0 0
0.0318940505385398865 -0.086120113730430603 0.0123960329219698906 0 0 0 0 0 0
0.0625584125518798828 -0.0570469126105308533 -0.0378221645951271057 0 0 0 0 0 0
0.0637088790535926819 -0.0528274402022361755 -0.0323688574135303497 0 0 0 0 0 0
0.0567908100783824921 -0.0703286975622177124 -0.0269622132182121277 0 0 0 0 0 0
0.0464007668197154999 -0.0838072523474693298 -0.0146629763767123222 0 0 0 0 0 0
0.0351673588156700134 -0.0922365784645080566 -0.00142906489782035351 0 0 0 0 0 0
0.0227865390479564667 -0.0997764095664024353 0.00716229714453220367 0 0 0 0 0 0
-0.00776979047805070877 -0.069995388388633728 0.0542749166488647461 0 0 0 0 0 0
0.0059985630214214325 -0.0968108996748924255 0.0261054076254367828 0 0 0 0 0 0
0.0106915310025215149 -0.0977499485015869141 0.0210752338171005249 0 0 0 0 0 0
0.037104777991771698 -0.0771985650062561035 0.01500721275806427 0 0 0 0 0 0
0.0109097845852375031 -0.0588948354125022888 0.0444862358272075653 0 0 0 0 0 0
-0.00561955152079463005 -0.101733490824699402 0.0239722169935703278 0 0 0 0 0 0
-0.00372354499995708466 -0.106845185160636902 0.0168975647538900375 0 0 0 0 0 0
0.00986287835985422134 -0.110478296875953674 0.00749401748180389404 0 0 0 0 0 0
-0.00107515673153102398 -0.0743219256401062012 0.051734238862991333 0 0 0 0 0 0
0.00683660199865698814 -0.106670752167701721 0.0128653552383184433 0 0 0 0 0 0
0.0105702793225646019 -0.0863846838474273682 0.0365736857056617737 0 0 0 0 0 0
0.0223389081656932831 -0.0644284561276435852 0.0373801663517951965 0 0 0 0 0 0
0.00873460248112678528 -0.0801525712013244629 0.0448588654398918152 0 0 0 0 0 0
0.0318266004323959351 -0.0566495880484580994 0.0319396853446960449 0 0 0 0 0 0
0.0163137353956699371 -0.0733578205108642578 0.0410356186330318451 0 0 0 0 0 0
0.0373976528644561768 -0.0498299412429332733 0.0273488964885473251 0 0 0 0 0 0
0.0265085808932781219 -0.0523715876042842865 0.0374586842954158783 0 0 0 0 0 0
0.0346242263913154602 -0.046749018132686615 0.0315028280019760132 0 0 0 0 0 0
0.0289235822856426239 -0.0372030884027481079 0.0386295020580291748 0 0 0 0 0 0
0.0336013063788414001 -0.0401935800909996033 0.033807065337896347 0 0 0 0 0 0
0.0383827686309814453 -0.0379111990332603455 0.02837388776242733 0 0 0 0 0 0
0.0449438020586967468 -0.0275784879922866821 0.021804390475153923 0 0 0 0 0 0
0.0430492386221885681 -0.013980058953166008 0.0259234067052602768 0 0 0 0 0 0
0.0453119874000549316 -0.0413494855165481567 0.018586084246635437 0 0 0 0 0 0
0.0393058918416500092 -0.00358307524584233761 0.0298669394105672836 0 0 0 0 0 0
0.0487362705171108246 -0.0426845960319042206 0.0129794804379343987 0 0 0 0 0 0
0.0392374396324157715 -0.117428027093410492 -0.0184102393686771393 0 0 0 0 0 0
0.0269178412854671478 -0.122461065649986267 -0.00918091833591461182 0 0 0 0 0 0
0.00489073758944869041 -0.096173606812953949 -0.126716166734695435 0 0 0 0 0 0
0.0762647092342376709 0.00114778615534305573 -0.0666652321815490723 0 0 0 0 0 0
0.0672781318426132202 -0.0399456620216369629 -0.0406208038330078125 0 0 0 0 0 0
0.00288631953299045563 -0.081975102424621582 0.0469642877578735352 0 0 0 0 0 0
0.0443288311362266541 -0.0681832358241081238 0.00915927812457084656 0 0 0 0 0 0
-0.00206000683829188347 0.00865165982395410538 0.0510511398315429688 0 0 0 0 0 0
0.0505324974656105042 -0.0623110905289649963 -0.00093554274644702673 0 0 0 0 0 0
0.0152711570262908936 -0.0906578525900840759 0.0262478869408369064 0 0 0 0 0 0
0.049718022346496582 -0.11247764527797699 -0.0304192714393138885 0 0 0 0 0 0
0.00361467618495225906 -0.060208003968000412 0.0489576160907745361 0 0 0 0 0 0
0.0496611706912517548 -0.0227421373128890991 0.0165239349007606506 0 0 0 0 0 0
0.051686994731426239 -0.011295209638774395 0.0163354109972715378 0 0 0 0 0 0
0.0480910502374172211 -0.00911009591072797775 0.0211716257035732269 0 0 0 0 0 0
0.00461140647530555725 -0.0384875908493995667 0.05394778773188591 0 0 0 0 0 0
0.0203695278614759445 0.0383589677512645721 0.0255078189074993134 0 0 0 0 0 0
0.0363546423614025116 -0.0773517265915870667 -0.111292153596878052 0 0 0 0 0 0
0.018327709287405014 0.0372043587267398834 0.0245043840259313583 0 0 0 0 0 0
0.0157292671501636505 0.0356071256101131439 0.0239543206989765167 0 0 0 0 0 0
0.0488789528608322144 -0.096358761191368103 -0.0265224240720272064 0 0 0 0 0 0
0.0791114121675491333 0.00750670861452817917 -0.0880555063486099243 0 0 0 0 0 0
0.00138034042902290821 -0.0992741212248802185 0.0251972973346710205 0 0 0 0 0 0
-0.010754699818789959 -0.0735355764627456665 0.0536735653877258301 0 0 0 0 0 0
0.00276139192283153534 -0.104390725493431091 0.0176727063953876495 0 0 0 0 0 0
-0.00138491741381585598 -0.110189780592918396 0.0130077619105577469 0 0 0 0 0 0
-0.00634396076202392578 -0.0949019640684127808 0.0338483639061450958 0 0 0 0 0 0
0.076106533408164978 -0.0202499609440565109 -0.0647047236561775208 0 0 0 0 0 0
0.0781086832284927368 0.0103881834074854851 -0.0625178217887878418 0 0 0 0 0 0
0.00280822394415736198 -0.0338021144270896912 0.0549367479979991913 0 0 0 0 0 0
0.0179965868592262268 0.0336299873888492584 0.0221790075302124023 0 0 0 0 0 0
0.0183984860777854919 0.0331196561455726624 0.0245405789464712143 0 0 0 0 0 0
-0.00366837042383849621 0.032215554267168045 0.0499976091086864471 0 0 0 0 0 0
0.00255914102308452129 0.0227096285670995712 0.0472902879118919373 0 0 0 0 0 0
0.00317348865792155266 0.0418184474110603333 0.0307513382285833359 0 0 0 0 0 0
0.00222769170068204403 0.0331847965717315674 0.0357987247407436371 0 0 0 0 0 0
0.0214351378381252289 0.134524896740913391 -0.0778770893812179565 0 0 0 0 0 0
0.0544516369700431824 -0.0313019193708896637 0.00590180978178977966 0 0 0 0 0 0
0.0307936184108257294 0.0304469317197799683 0.0268773213028907776 0 0 0 0 0 0
0.0800243467092514038 0.048478882759809494 -0.0640871450304985046 0 0 0 0 0 0
0.0896910429000854492 -0.00578256696462631226 -0.0811387225985527039 0 0 0 0 0 0
0.0228880979120731354 0.0391398482024669647 0.0276798456907272339 0 0 0 0 0 0
0.00362497079186141491 0.0371225737035274506 0.0282778441905975342 0 0 0 0 0 0
0.0104813678190112114 -0.0379069112241268158 0.0453015230596065521 0 0 0 0 0 0
0.0430240854620933533 -0.0733130276203155518 -0.104285269975662231 0 0 0 0 0 0
0.0732073858380317688 -0.037040218710899353 -0.0473432466387748718 0 0 0 0 0 0
0.055362991988658905 -0.130671456456184387 -0.123093150556087494 0 0 0 0 0 0
0.0316962748765945435 0.0386836044490337372 0.0280855409801006317 0 0 0 0 0 0
0.056596558541059494 0.0268913768231868744 -0.153303593397140503 0 0 0 0 0 0
0.0601285621523857117 -0.12395622581243515 -0.0609282366931438446 0 0 0 0 0 0
0.0356856808066368103 -0.129665479063987732 -0.0155561668798327446 0 0 0 0 0 0
-0.00213315826840698719 -0.0685142502188682556 0.0530750229954719543 0 0 0 0 0 0
0.00616488372907042503 -0.0687651783227920532 0.0489263944327831268 0 0 0 0 0 0
-0.00963677000254392624 -0.089421592652797699 0.0415228232741355896 0 0 0 0 0 0
0.0221650507301092148 -0.0904077589511871338 0.0193430446088314056 0 0 0 0 0 0
0.0488713942468166351 -0.0744551569223403931 -0.010902094654738903 0 0 0 0 0 0
0.000812625046819448471 -0.0944020003080368042 0.0325933396816253662 0 0 0 0 0 0
0.00795915909111499786 -0.0745896100997924805 0.0475813150405883789 0 0 0 0 0 0
-0.0100805973634123802 -0.0844507813453674316 0.0471394173800945282 0 0 0 0 0 0
0.0536644123494625092 -0.0182856842875480652 0.0112988296896219254 0 0 0 0 0 0
0.0248454120010137558 -0.0696111321449279785 0.0340096801519393921 0 0 0 0 0 0
0.036991707980632782 -0.0579550862312316895 0.0255800448358058929 0 0 0 0 0 0
0.0202973149716854095 0.0391773059964179993 0.0233902633190155029 0 0 0 0 0 0
0.0163473710417747498 -0.0985766351222991943 0.0150095699355006218 0 0 0 0 0 0
0.0041559622623026371 -0.0376122705638408661 0.0483390763401985168 0 0 0 0 0 0
0.0103233372792601585 -0.0371876060962677002 0.048121180385351181 0 0 0 0 0 0
0.0545322969555854797 0.0408226773142814636 0.00431635836139321327 0 0 0 0 0 0
0.0305196046829223633 -0.0729942545294761658 0.0267703589051961899 0 0 0 0 0 0
0.0366113483905792236 -0.072371266782283783 0.019665958359837532 0 0 0 0 0 0
0.0214272346347570419 -0.125415384769439697 -0.132070571184158325 0 0 0 0 0 0
-0.0392511039972305298 -0.129879653453826904 -0.0137946903705596924 0 0 0 0 0 0
-0.0627059489488601685 -0.112160086631774902 -0.0802185162901878357 0 0 0 0 0 0
