ply
format ascii 1.0
element vertex 599
property float x
property float y
property float z
property float nx
property float ny
property float nz
property uchar red
property uchar green
property uchar blue
end_header
0.0374409668147563934 0.0141220148652791977 0.0205155257135629654 0 0 0 0 0 0
-0.087058626115322113 0.0215857531875371933 -0.0907722339034080505 0 0 0 0 0 0
0.0357928872108459473 0.0147748058661818504 0.021699950098991394 0 0 0 0 0 0
0.0386957041919231415 0.016131814569234848 0.0208586528897285461 0 0 0 0 0 0
0.00282446388155221939 0.018653498962521553 0.0248564667999744415 0 0 0 0 0 0
0.00175618694629520178 0.0212401188910007477 0.0267171170562505722 0 0 0 0 0 0
-0.077615492045879364 0.0103354565799236298 -0.0937590152025222778 0 0 0 0 0 0
-0.085522875189781189 0.0152607914060354233 -0.0989962071180343628 0 0 0 0 0 0
-0.0759971737861633301 0.0136984940618276596 -0.0807693451642990112 0 0 0 0 0 0
-0.0706078037619590759 -0.0318118855357170105 -0.0739729031920433044 0 0 0 0 0 0
-0.0698879286646842957 -0.0182609409093856812 -0.0867320150136947632 0 0 0 0 0 0
0.00075224507600069046 0.0190632529556751251 0.0252061598002910614 0 0 0 0 0 0
0.000789236626587808132 0.0161524619907140732 0.0246960949152708054 0 0 0 0 0 0
0.00263972464017570019 0.0155975520610809326 0.0248299837112426758 0 0 0 0 0 0
0.00231895782053470612 0.0163092948496341705 0.0247133336961269379 0 0 0 0 0 0
0.00132138002663850784 0.0151326879858970642 0.0247829072177410126 0 0 0 0 0 0
0.0112809743732213974 0.0110823791474103928 0.0281467139720916748 0 0 0 0 0 0
-0.0701051056385040283 -0.0303051881492137909 -0.0687723681330680847 0 0 0 0 0 0
0.0105284471064805984 0.00980423018336296082 0.0279431194067001343 0 0 0 0 0 0
0.0073149646632373333 0.012603759765625 0.0269445460289716721 0 0 0 0 0 0
-0.078397795557975769 0.0178883783519268036 -0.0820237547159194946 0 0 0 0 0 0
0.00636385893449187279 0.0114667471498250961 0.0267104338854551315 0 0 0 0 0 0
-0.0851351246237754822 0.0112807359546422958 -0.0987644195556640625 0 0 0 0 0 0
0.00408467790111899376 0.0144165735691785812 0.025521155446767807 0 0 0 0 0 0
0.0667282268404960632 0.0323279164731502533 -0.143097013235092163 0 0 0 0 0 0
-0.0844307765364646912 -0.00665560737252235413 -0.0936264693737030029 0 0 0 0 0 0
0.0587916485965251923 0.000575339130591601133 -0.134115546941757202 0 0 0 0 0 0
0.0193478353321552277 -0.06111174076795578 0.0302867591381072998 0 0 0 0 0 0
-0.0848268121480941772 0.00155950430780649185 -0.0955661460757255554 0 0 0 0 0 0
0.053296796977519989 -0.00681720441207289696 0.00714802881702780724 0 0 0 0 0 0
-0.0874044224619865417 0.01205447968095541 -0.0998088568449020386 0 0 0 0 0 0
-0.0757047459483146667 0.0181416794657707214 -0.092244565486907959 0 0 0 0 0 0
-0.0148761076852679253 0.0208061989396810532 0.0402386859059333801 0 0 0 0 0 0
0.0323008373379707336 0.0297156106680631638 0.033769804984331131 0 0 0 0 0 0
0.0305670537054538727 0.0258527006953954697 0.0345949307084083557 0 0 0 0 0 0
-0.0167585927993059158 -0.0372934304177761078 0.0461614504456520081 0 0 0 0 0 0
0.0409508496522903442 0.021633422002196312 0.0226951055228710175 0 0 0 0 0 0
0.0385752730071544647 0.0209478437900543213 0.0243997126817703247 0 0 0 0 0 0
0.0340586602687835693 0.0250647477805614471 0.0317346528172492981 0 0 0 0 0 0
0.0377971529960632324 0.0248736497014760971 0.0281948298215866089 0 0 0 0 0 0
-0.0724413245916366577 -0.0141159389168024063 -0.0718978047370910645 0 0 0 0 0 0
0.0363219603896141052 0.0237174332141876221 0.0289454143494367599 0 0 0 0 0 0
-0.0724270343780517578 -0.0191208124160766602 -0.087047770619392395 0 0 0 0 0 0
0.0406439453363418579 0.0191326364874839783 0.0209588613361120224 0 0 0 0 0 0
0.00802964251488447189 0.0240526236593723297 0.0313561037182807922 0 0 0 0 0 0
0.00700763566419482231 0.0244896858930587769 0.0321088694036006927 0 0 0 0 0 0
0.0119468746706843376 0.026113562285900116 0.0360065996646881104 0 0 0 0 0 0
0.00557692721486091614 0.0227481108158826828 0.0283537432551383972 0 0 0 0 0 0
0.00326360249891877174 0.0230084285140037537 0.0290578063577413559 0 0 0 0 0 0
-0.0101137030869722366 -0.0209262631833553314 0.0444843918085098267 0 0 0 0 0 0
-0.0813052728772163391 0.0175008475780487061 -0.0855679735541343689 0 0 0 0 0 0
-0.077822953462600708 -0.0181422308087348938 -0.0809212028980255127 0 0 0 0 0 0
-0.0131093170493841171 -0.0267135612666606903 0.0446729362010955811 0 0 0 0 0 0
0.0145511515438556671 0.024087611585855484 0.030512981116771698 0 0 0 0 0 0
-0.0768896043300628662 -0.029180917888879776 -0.0834516137838363647 0 0 0 0 0 0
-0.0723086744546890259 -0.014996982179582119 -0.0707674771547317505 0 0 0 0 0 0
-0.0784615278244018555 0.0127883553504943848 -0.0937650501728057861 0 0 0 0 0 0
0.0687180384993553162 0.113005392253398895 -0.109523490071296692 0 0 0 0 0 0
0.00912770070135593414 0.0226568430662155151 0.0285590346902608871 0 0 0 0 0 0
-0.0838582813739776611 0.0129194408655166626 -0.0937491580843925476 0 0 0 0 0 0
-0.00935695972293615341 0.0158937200903892517 0.0382388532161712646 0 0 0 0 0 0
0.0219687744975090027 0.0239210464060306549 0.0314436480402946472 0 0 0 0 0 0
0.0272875763475894928 0.0226653739809989929 0.0318792834877967834 0 0 0 0 0 0
-0.0736939311027526855 -0.0008219138253480196 -0.0766683816909790039 0 0 0 0 0 0
-0.00929829012602567673 0.00238960562273859978 0.0453066639602184296 0 0 0 0 0 0
-0.0752370879054069519 -0.00101894198451191187 -0.0742258578538894653 0 0 0 0 0 0
0.0337847508490085602 0.0206505488604307175 0.0269915983080863953 0 0 0 0 0 0
0.0349906310439109802 0.0204627476632595062 0.0265067517757415771 0 0 0 0 0 0
0.0355109535157680511 0.0199907012283802032 0.0252417884767055511 0 0 0 0 0 0
-0.0713545829057693481 0.000678064301609992981 -0.0777896642684936523 0 0 0 0 0 0
-0.0742242634296417236 0.00115795852616429329 -0.0899176597595214844 0 0 0 0 0 0
0.0349073521792888641 0.0200797896832227707 0.025554463267326355 0 0 0 0 0 0
0.00867883581668138504 0.0233870819211006165 0.0298887118697166443 0 0 0 0 0 0
-0.0851446092128753662 0.00247227773070335388 -0.0979888588190078735 0 0 0 0 0 0
0.00963598117232322693 0.0230565331876277924 0.0292386822402477264 0 0 0 0 0 0
-0.083778083324432373 0.0273898076266050339 -0.0799966901540756226 0 0 0 0 0 0
0.016662895679473877 0.0239715538918972015 0.033738505095243454 0 0 0 0 0 0
-0.0729703307151794434 -0.0139048993587493896 -0.0813987851142883301 0 0 0 0 0 0
-0.0715694725513458252 -0.0106883421540260315 -0.0750184282660484314 0 0 0 0 0 0
-0.0744452103972434998 0.00300468015484511852 -0.0753372311592102051 0 0 0 0 0 0
-0.0847402065992355347 -0.00966177321970462799 -0.0986932739615440369 0 0 0 0 0 0
0.0168801210820674896 0.0234895050525665283 0.0322466716170310974 0 0 0 0 0 0
-0.0687419697642326355 -0.026270642876625061 -0.0673376172780990601 0 0 0 0 0 0
-0.0887844786047935486 0.0249287839978933334 -0.0964409336447715759 0 0 0 0 0 0
-0.0720375329256057739 0.00756874494254589081 -0.0815133675932884216 0 0 0 0 0 0
0.0623424947261810303 0.0743888542056083679 -0.145407781004905701 0 0 0 0 0 0
0.0305928103625774384 0.0231028404086828232 0.0325528234243392944 0 0 0 0 0 0
0.0295612141489982605 0.0223736613988876343 0.0318046882748603821 0 0 0 0 0 0
-0.0515534058213233948 -0.0192657485604286194 -0.116702631115913391 0 0 0 0 0 0
-0.0788605958223342896 -0.0273792147636413574 -0.0832343846559524536 0 0 0 0 0 0
-0.0772938057780265808 0.0156345590949058533 -0.0720212236046791077 0 0 0 0 0 0
0.0263259969651699066 0.0230050571262836456 0.0329472199082374573 0 0 0 0 0 0
-0.0867877751588821411 0.0146532803773880005 -0.102808102965354919 0 0 0 0 0 0
0.034272167831659317 0.0211534649133682251 0.0283109955489635468 0 0 0 0 0 0
-0.0123147238045930862 -0.0676051303744316101 0.040189843624830246 0 0 0 0 0 0
-0.0785117298364639282 0.0196112766861915588 -0.0807352066040039062 0 0 0 0 0 0
-0.0773558095097541809 0.011929631233215332 -0.0780265852808952332 0 0 0 0 0 0
-0.0137792257592082024 -0.0492290332913398743 0.0444396696984767914 0 0 0 0 0 0
-0.07691173255443573 0.0192269328981637955 -0.0706128478050231934 0 0 0 0 0 0
0.0365050286054611206 0.0208159610629081726 0.0264777150005102158 0 0 0 0 0 0
-0.0697433799505233765 -0.0161271877586841583 -0.0879560112953186035 0 0 0 0 0 0
0.0707368478178977966 -0.0119241205975413322 -0.0442030392587184906 0 0 0 0 0 0
0.0839546620845794678 0.00115786620881408453 -0.0697652101516723633 0 0 0 0 0 0
-0.0788945853710174561 0.0130256544798612595 -0.0770398303866386414 0 0 0 0 0 0
-0.0708201751112937927 -0.0203067399561405182 -0.0663913115859031677 0 0 0 0 0 0
-0.0771396905183792114 0.0173797570168972015 -0.0804093405604362488 0 0 0 0 0 0
-0.0756121724843978882 0.0123948156833648682 -0.0801255255937576294 0 0 0 0 0 0
0.0819722637534141541 0.0108994413167238235 -0.0693809017539024353 0 0 0 0 0 0
-0.0774403735995292664 0.00154947931878268719 -0.0898621603846549988 0 0 0 0 0 0
0.0859220325946807861 0.0213996004313230515 -0.0616919919848442078 0 0 0 0 0 0
-0.013966389000415802 -0.046891435980796814 0.0432695262134075165 0 0 0 0 0 0
0.0829448327422142029 0.00832868460565805435 -0.0685431808233261108 0 0 0 0 0 0
0.0828226655721664429 -0.0238803774118423462 -0.0612857341766357422 0 0 0 0 0 0
-0.0185529962182044983 -0.00600142218172550201 0.0574930310249328613 0 0 0 0 0 0
0.094361424446105957 0.0153498183935880661 -0.0666013732552528381 0 0 0 0 0 0
0.0944124609231948853 0.0185524262487888336 -0.0625166743993759155 0 0 0 0 0 0
0.0956180691719055176 0.0110490536317229271 -0.0689186453819274902 0 0 0 0 0 0
0.0497368350625038147 -0.0221979282796382904 -0.123769104480743408 0 0 0 0 0 0
-0.0652568787336349487 -0.0217156168073415756 -0.0873492956161499023 0 0 0 0 0 0
0.0333596616983413696 0.0224260352551937103 0.0304259266704320908 0 0 0 0 0 0
0.0106948418542742729 -0.0357919707894325256 0.0373543202877044678 0 0 0 0 0 0
0.0953390598297119141 0.0113777406513690948 -0.0693509131669998169 0 0 0 0 0 0
0.0747527480125427246 -0.00474930647760629654 -0.0482957586646080017 0 0 0 0 0 0
0.0970661863684654236 0.019334547221660614 -0.0659215524792671204 0 0 0 0 0 0
0.0949326977133750916 0.013543376699090004 -0.0679776519536972046 0 0 0 0 0 0
0.0911864787340164185 0.0164681635797023773 -0.06517019122838974 0 0 0 0 0 0
0.0892453119158744812 0.0159266255795955658 -0.0614762008190155029 0 0 0 0 0 0
0.0882949456572532654 -0.00692790094763040543 -0.0714861303567886353 0 0 0 0 0 0
0.088386237621307373 0.0023565411102026701 -0.0709911361336708069 0 0 0 0 0 0
-0.0752277225255966187 0.0131194926798343658 -0.0780074447393417358 0 0 0 0 0 0
-0.0138663528487086296 -0.0256369020789861679 0.0450182631611824036 0 0 0 0 0 0
-0.0137427020817995071 -0.0237536616623401642 0.0461349152028560638 0 0 0 0 0 0
-0.0739950686693191528 -0.0320412851870059967 -0.0750097781419754028 0 0 0 0 0 0
-0.0786523371934890747 0.0103615168482065201 -0.0836567729711532593 0 0 0 0 0 0
0.012587621808052063 0.0251870453357696533 0.0346253775060176849 0 0 0 0 0 0
0.0897889658808708191 -0.0059496881440281868 -0.0727514550089836121 0 0 0 0 0 0
-0.0880169495940208435 0.00223419209942221642 -0.099242672324180603 0 0 0 0 0 0
0.0874427780508995056 -0.0191859211772680283 -0.0656340643763542175 0 0 0 0 0 0
0.0708103179931640625 -0.0287414044141769409 -0.0563082844018936157 0 0 0 0 0 0
-0.0685215666890144348 -0.0303684920072555542 -0.0694157704710960388 0 0 0 0 0 0
-0.0721181035041809082 0.00400389451533555984 -0.0830011889338493347 0 0 0 0 0 0
0.0900029093027114868 -0.0157060399651527405 -0.0674224495887756348 0 0 0 0 0 0
0.0868079662322998047 0.0191553011536598206 -0.0557606630027294159 0 0 0 0 0 0
0.0879471749067306519 0.0196306910365819931 -0.0569532029330730438 0 0 0 0 0 0
0.0871110111474990845 0.0197543613612651825 -0.0567954406142234802 0 0 0 0 0 0
-0.0747555643320083618 0.0120574813336133957 -0.0797531604766845703 0 0 0 0 0 0
0.0820266306400299072 0.00183254503645002842 -0.0704175755381584167 0 0 0 0 0 0
0.0723254382610321045 -0.0231239348649978638 -0.0495578758418560028 0 0 0 0 0 0
-0.0720389783382415771 -0.0153199313208460808 -0.0683788135647773743 0 0 0 0 0 0
0.0750990211963653564 -0.0101598752662539482 -0.0495939329266548157 0 0 0 0 0 0
0.0967339500784873962 0.00566758215427398682 -0.0710890963673591614 0 0 0 0 0 0
-0.0134674794971942902 -0.0448997244238853455 0.0426308214664459229 0 0 0 0 0 0
0.0801850929856300354 0.0149917230010032654 -0.0542392842471599579 0 0 0 0 0 0
0.078686639666557312 0.0116439890116453171 -0.0528665557503700256 0 0 0 0 0 0
0.0783853679895401001 0.0109377047047019005 -0.0527422837913036346 0 0 0 0 0 0
0.071736656129360199 -0.0183002594858407974 -0.0548971705138683319 0 0 0 0 0 0
0.0762782469391822815 0.0086292363703250885 -0.0538371726870536804 0 0 0 0 0 0
0.0847717970609664917 -0.00936315208673477173 -0.0646257400512695312 0 0 0 0 0 0
0.0682223737239837646 -0.0357801690697669983 -0.0501021556556224823 0 0 0 0 0 0
-0.0851092785596847534 0.0200331136584281921 -0.0957185029983520508 0 0 0 0 0 0
-0.0847307071089744568 0.0221019089221954346 -0.0921338796615600586 0 0 0 0 0 0
-0.0764236077666282654 0.010958544909954071 -0.0813122689723968506 0 0 0 0 0 0
0.0714974105358123779 -0.0337989553809165955 -0.0488066934049129486 0 0 0 0 0 0
-0.0770171880722045898 -0.0205170456320047379 -0.0787716060876846313 0 0 0 0 0 0
-0.0834022089838981628 -0.010131126269698143 -0.0916303396224975586 0 0 0 0 0 0
-0.081507757306098938 0.0030735749751329422 -0.0995472073554992676 0 0 0 0 0 0
0.0964071899652481079 0.0136249540373682976 -0.0678809583187103271 0 0 0 0 0 0
0.0944614559412002563 0.0210017524659633636 -0.0641280412673950195 0 0 0 0 0 0
0.0830535069108009338 -0.0267575141042470932 -0.0606348328292369843 0 0 0 0 0 0
0.0788790211081504822 0.0110492072999477386 -0.052492097020149231 0 0 0 0 0 0
-0.0756540820002555847 0.000600181752815842628 -0.0951404273509979248 0 0 0 0 0 0
-0.0711743161082267761 -0.0217837896198034286 -0.0674885660409927368 0 0 0 0 0 0
-0.0747724324464797974 0.00355420960113406181 -0.0728934258222579956 0 0 0 0 0 0
-0.0731467530131340027 0.0109040094539523125 -0.0796796977519989014 0 0 0 0 0 0
-0.0759118720889091492 -0.0169512759894132614 -0.0894876420497894287 0 0 0 0 0 0
-0.0715320035815238953 -0.0232332851737737656 -0.081952802836894989 0 0 0 0 0 0
0.0818926542997360229 0.0122577017173171043 -0.0519281923770904541 0 0 0 0 0 0
0.0803826600313186646 0.0113468747586011887 -0.052117764949798584 0 0 0 0 0 0
0.08259572833776474 0.0135793965309858322 -0.0522452704608440399 0 0 0 0 0 0
0.0881974548101425171 0.0187493469566106796 -0.056278325617313385 0 0 0 0 0 0
0.0836416333913803101 0.0263116322457790375 -0.0583560466766357422 0 0 0 0 0 0
0.0696132928133010864 -0.0350085645914077759 -0.0485843829810619354 0 0 0 0 0 0
0.0906003713607788086 0.0190351232886314392 -0.058419644832611084 0 0 0 0 0 0
0.0890911146998405457 0.0187269281595945358 -0.0564025044441223145 0 0 0 0 0 0
-0.081259116530418396 -0.0151233673095703125 -0.0895911380648612976 0 0 0 0 0 0
0.0807868242263793945 0.0148650407791137695 -0.0530485808849334717 0 0 0 0 0 0
0.0802406594157218933 0.0149685759097337723 -0.0535324737429618835 0 0 0 0 0 0
-0.0704261735081672668 0.000345250446116551757 -0.0781613960862159729 0 0 0 0 0 0
-0.0835652351379394531 -0.00105698930565267801 -0.0906786471605300903 0 0 0 0 0 0
-0.0781054496765136719 0.0135145187377929688 -0.0778743922710418701 0 0 0 0 0 0
0.0770085379481315613 -0.0133726019412279129 -0.0641325637698173523 0 0 0 0 0 0
0.0721765011548995972 -0.00305754109285771847 -0.0544938854873180389 0 0 0 0 0 0
0.0767814368009567261 -0.010180286131799221 -0.0647680088877677917 0 0 0 0 0 0
0.070761948823928833 -0.0275410190224647522 -0.0476252250373363495 0 0 0 0 0 0
-0.0752100571990013123 -0.031346149742603302 -0.0801756605505943298 0 0 0 0 0 0
-0.0760414823889732361 0.00628942064940929413 -0.0771298408508300781 0 0 0 0 0 0
0.0375861935317516327 0.0190223995596170425 0.0232355706393718719 0 0 0 0 0 0
-0.0809593722224235535 0.0169480927288532257 -0.0778498798608779907 0 0 0 0 0 0
0.0784152895212173462 -0.0128017766401171684 -0.0656945928931236267 0 0 0 0 0 0
-0.0670262575149536133 -0.00871704332530498505 -0.0766140744090080261 0 0 0 0 0 0
0.0726469755172729492 0.00274454895406961441 -0.0442161671817302704 0 0 0 0 0 0
0.0807949751615524292 -0.0215166863054037094 -0.0589150190353393555 0 0 0 0 0 0
-0.0844171345233917236 0.00954616069793701172 -0.0965193808078765869 0 0 0 0 0 0
0.0229855682700872421 -0.0141465514898300171 -0.146336689591407776 0 0 0 0 0 0
-0.0837585553526878357 0.0227213315665721893 -0.0885423123836517334 0 0 0 0 0 0
-0.0804942697286605835 0.0113914627581834793 -0.0972097665071487427 0 0 0 0 0 0
0.0797060057520866394 -0.0234063379466533661 -0.0576010271906852722 0 0 0 0 0 0
-0.0767312049865722656 0.0145058464258909225 -0.0824256986379623413 0 0 0 0 0 0
0.0880192220211029053 -0.0238605886697769165 -0.0675122886896133423 0 0 0 0 0 0
-0.0784178078174591064 0.0307218879461288452 -0.0858535096049308777 0 0 0 0 0 0
0.0914562046527862549 -0.0129020344465970993 -0.068445354700088501 0 0 0 0 0 0
-0.0695497393608093262 -0.0265872925519943237 -0.0769893079996109009 0 0 0 0 0 0
-0.0720491930842399597 -0.0142307430505752563 -0.0798365622758865356 0 0 0 0 0 0
0.0157198123633861542 0.0099968835711479187 0.0286707356572151184 0 0 0 0 0 0
0.0831735730171203613 0.0137555776163935661 -0.050349108874797821 0 0 0 0 0 0
0.0930784270167350769 -0.00645914580672979355 -0.0701502561569213867 0 0 0 0 0 0
0.0803235322237014771 -0.0258571580052375793 -0.0584687553346157074 0 0 0 0 0 0
0.0908457860350608826 -0.0129402503371238708 -0.068590700626373291 0 0 0 0 0 0
-0.0848115012049674988 -0.00743703357875347137 -0.0968053266406059265 0 0 0 0 0 0
0.0854690298438072205 -0.0153632834553718567 -0.0621912851929664612 0 0 0 0 0 0
0.0843824446201324463 -0.0147212278097867966 -0.0619188472628593445 0 0 0 0 0 0
-0.0728585496544837952 0.0064848409965634346 -0.0863122865557670593 0 0 0 0 0 0
-0.0787040740251541138 0.0230081304907798767 -0.0861184597015380859 0 0 0 0 0 0
-0.0845014303922653198 0.0122650377452373505 -0.102497771382331848 0 0 0 0 0 0
-0.0717818960547447205 -0.0176789332181215286 -0.0682374164462089539 0 0 0 0 0 0
0.0757100582122802734 -0.0245974119752645493 -0.062224172055721283 0 0 0 0 0 0
-0.0161901023238897324 0.00176566047593951225 0.0513639673590660095 0 0 0 0 0 0
0.0747536942362785339 0.0051161888986825943 -0.0576009266078472137 0 0 0 0 0 0
0.0878517851233482361 -0.00927598588168621063 -0.063657715916633606 0 0 0 0 0 0
-0.0763392969965934753 -0.0302889160811901093 -0.0755564123392105103 0 0 0 0 0 0
0.0949479639530181885 0.0133735975250601768 -0.0689675137400627136 0 0 0 0 0 0
0.0745476633310317993 0.003789164824411273 -0.0595885515213012695 0 0 0 0 0 0
-0.019127456471323967 -0.0243481211364269257 0.0514802783727645874 0 0 0 0 0 0
-0.0151937808841466904 -0.0592414252460002899 0.0415582172572612762 0 0 0 0 0 0
-0.0778906941413879395 0.0123283043503761292 -0.0829595327377319336 0 0 0 0 0 0
0.0852402448654174805 0.0161107387393712997 -0.0574632398784160614 0 0 0 0 0 0
-0.0764551311731338501 0.0132117476314306259 -0.08142814040184021 0 0 0 0 0 0
0.0937407612800598145 0.0164883323013782501 -0.0642868727445602417 0 0 0 0 0 0
0.0890593528747558594 0.0094266645610332489 -0.0628759711980819702 0 0 0 0 0 0
-0.0762765631079673767 0.0114564709365367889 -0.0781531855463981628 0 0 0 0 0 0
0.0734257325530052185 -0.0127227101475000381 -0.051209576427936554 0 0 0 0 0 0
-0.0814978852868080139 0.0196002256125211716 -0.0804440006613731384 0 0 0 0 0 0
0.0791180878877639771 -0.0126602901145815849 -0.0693397894501686096 0 0 0 0 0 0
0.0686416253447532654 -0.0155362365767359734 -0.0541967004537582397 0 0 0 0 0 0
-0.0751524567604064941 0.0139653049409389496 -0.0789730176329612732 0 0 0 0 0 0
-0.0779288113117218018 0.00589246442541480064 -0.0869778692722320557 0 0 0 0 0 0
0.0888758748769760132 0.00215457938611507416 -0.063642546534538269 0 0 0 0 0 0
0.0854975208640098572 0.00731957098469138145 -0.0598071292042732239 0 0 0 0 0 0
0.087118685245513916 0.00930623151361942291 -0.0601409450173377991 0 0 0 0 0 0
0.0919377654790878296 0.018848806619644165 -0.0632840543985366821 0 0 0 0 0 0
0.0774010121822357178 0.00524808838963508606 -0.0542630776762962341 0 0 0 0 0 0
-0.0795464217662811279 0.0269875675439834595 -0.0780494958162307739 0 0 0 0 0 0
-0.0694169774651527405 -0.0282251723110675812 -0.0758368596434593201 0 0 0 0 0 0
0.0726192891597747803 -0.00370103935711085796 -0.0539127811789512634 0 0 0 0 0 0
-0.0843534320592880249 0.0186616741120815277 -0.0944908112287521362 0 0 0 0 0 0
0.0844840556383132935 0.0256468411535024643 -0.0627601295709609985 0 0 0 0 0 0
0.0936599001288414001 0.016958627849817276 -0.0643329396843910217 0 0 0 0 0 0
0.0831048712134361267 -0.0301373153924942017 -0.0612112432718276978 0 0 0 0 0 0
-0.0744348913431167603 0.0126830628141760826 -0.0790494531393051147 0 0 0 0 0 0
-0.0846082791686058044 -0.00617531454190611839 -0.0962378978729248047 0 0 0 0 0 0
-0.0127869835123419762 0.0508696548640727997 0.0378533564507961273 0 0 0 0 0 0
-0.0869164317846298218 0.0164604522287845612 -0.0993586406111717224 0 0 0 0 0 0
-0.0743105113506317139 0.00274660624563694 -0.0795347243547439575 0 0 0 0 0 0
0.0315566137433052063 0.0783494040369987488 -0.161159545183181763 0 0 0 0 0 0
-0.0612677112221717834 -0.00324342283420264721 -0.0795026123523712158 0 0 0 0 0 0
0.079428255558013916 0.0100771114230155945 -0.0488543584942817688 0 0 0 0 0 0
-0.0642683655023574829 -0.00943931564688682556 -0.0802659019827842712 0 0 0 0 0 0
0.0681327953934669495 -0.0326462984085083008 -0.0469774529337882996 0 0 0 0 0 0
0.0788469761610031128 0.012384745292365551 -0.0553704164922237396 0 0 0 0 0 0
-0.0607393980026245117 -0.00656125135719776154 -0.0799483060836791992 0 0 0 0 0 0
0.0707684904336929321 -0.0130781000480055809 -0.0527117624878883362 0 0 0 0 0 0
0.0853954851627349854 0.00045403558760881424 -0.0694884583353996277 0 0 0 0 0 0
-0.0843421816825866699 0.0238350443542003632 -0.087864510715007782 0 0 0 0 0 0
0.0702052786946296692 -0.0142548633739352226 -0.0582912787795066833 0 0 0 0 0 0
-0.0887218564748764038 0.015778563916683197 -0.0988555178046226501 0 0 0 0 0 0
-0.073231332004070282 0.0007342103635892272 -0.0769523680210113525 0 0 0 0 0 0
-0.0865585654973983765 0.0204771552234888077 -0.0964423865079879761 0 0 0 0 0 0
-0.00500418059527873993 0.0108982790261507034 0.03394288569688797 0 0 0 0 0 0
-0.0743105635046958923 -0.00975097343325614929 -0.0722070634365081787 0 0 0 0 0 0
-0.089449755847454071 0.0185960866510868073 -0.0994877442717552185 0 0 0 0 0 0
-0.0714009478688240051 -0.0250794719904661179 -0.0679143667221069336 0 0 0 0 0 0
-0.0778806954622268677 0.0185410268604755402 -0.0806235745549201965 0 0 0 0 0 0
0.0352660976350307465 0.0215651746839284897 0.0282926261425018311 0 0 0 0 0 0
-0.0839656740427017212 0.0213737692683935165 -0.0901678651571273804 0 0 0 0 0 0
-0.0487958043813705444 -0.107466720044612885 -0.0415610447525978088 0 0 0 0 0 0
0.0142360180616378784 0.0238636191934347153 0.0305884312838315964 0 0 0 0 0 0
-0.0818939134478569031 0.0242957901209592819 -0.0762533769011497498 0 0 0 0 0 0
0.0750264227390289307 0.00667807459831237793 -0.0556503534317016602 0 0 0 0 0 0
-0.0624973103404045105 -0.00940202735364437103 -0.0778044611215591431 0 0 0 0 0 0
-0.0629295110702514648 -0.0043817576952278614 -0.0768996328115463257 0 0 0 0 0 0
0.0135805048048496246 0.0142362248152494431 0.0288716740906238556 0 0 0 0 0 0
0.0691816061735153198 -0.0172645263373851776 -0.0531804673373699188 0 0 0 0 0 0
-0.0628079921007156372 -0.00742807891219854355 -0.0806177258491516113 0 0 0 0 0 0
0.06385783851146698 -0.00477396231144666672 -0.058380763977766037 0 0 0 0 0 0
-0.0681689903140068054 -0.000587570946663618088 -0.0786614418029785156 0 0 0 0 0 0
-0.070950239896774292 -0.0154690295457839966 -0.0744127780199050903 0 0 0 0 0 0
-0.0606970489025115967 -0.00859153829514980316 -0.0801984891295433044 0 0 0 0 0 0
0.0788981765508651733 0.0130294021219015121 -0.0535739883780479431 0 0 0 0 0 0
-0.0735898464918136597 0.0102469632402062416 -0.0811431482434272766 0 0 0 0 0 0
0.0751180276274681091 -0.00892156176269054413 -0.0625583156943321228 0 0 0 0 0 0
0.071561180055141449 -0.01555604487657547 -0.0585236512124538422 0 0 0 0 0 0
0.0733084827661514282 -0.007415025494992733 -0.059606604278087616 0 0 0 0 0 0
-0.0678085088729858398 -0.00715996837243437767 -0.0816354453563690186 0 0 0 0 0 0
0.0771854966878890991 -0.0351162180304527283 -0.0550650209188461304 0 0 0 0 0 0
-0.0793777927756309509 -0.017229616641998291 -0.0855862647294998169 0 0 0 0 0 0
-0.0746247097849845886 -0.0133659783750772476 -0.082081332802772522 0 0 0 0 0 0
-0.0749228298664093018 0.00553285330533981323 -0.0805272907018661499 0 0 0 0 0 0
0.0893243998289108276 0.0115634603425860405 -0.0623920075595378876 0 0 0 0 0 0
0.0804678350687026978 -0.025054052472114563 -0.0639718472957611084 0 0 0 0 0 0
-0.0609784349799156189 -0.00484750885516405106 -0.0796338766813278198 0 0 0 0 0 0
-0.0711548477411270142 0.000758515088818967342 -0.0780653208494186401 0 0 0 0 0 0
0.0646682828664779663 -0.006249208003282547 -0.0560247115790843964 0 0 0 0 0 0
0.0432310625910758972 0.0377209261059761047 -0.157545223832130432 0 0 0 0 0 0
0.0655685663223266602 -0.00721805170178413391 -0.0592348687350749969 0 0 0 0 0 0
0.0630389973521232605 -0.00605811085551977158 -0.0576895996928215027 0 0 0 0 0 0
0.0704902112483978271 -0.0141909755766391754 -0.0445528030395507812 0 0 0 0 0 0
0.0675287917256355286 -0.011979714035987854 -0.0588280074298381805 0 0 0 0 0 0
0.0701975226402282715 -0.0168014541268348694 -0.0564609430730342865 0 0 0 0 0 0
0.0812758952379226685 0.0212068744003772736 -0.0505469068884849548 0 0 0 0 0 0
0.0895463526248931885 -0.0128921596333384514 -0.0681449025869369507 0 0 0 0 0 0
0.0716730505228042603 -0.00404499610885977745 -0.0544353984296321869 0 0 0 0 0 0
0.0701268911361694336 -0.0105659104883670807 -0.0590926110744476318 0 0 0 0 0 0
0.0796867161989212036 0.0188924688845872879 -0.0490892156958580017 0 0 0 0 0 0
0.0650814995169639587 -0.00510018225759267807 -0.0560371801257133484 0 0 0 0 0 0
-0.0688730701804161072 -0.00647273985669016838 -0.0823467671871185303 0 0 0 0 0 0
0.0674943849444389343 -0.010189044289290905 -0.0548410192131996155 0 0 0 0 0 0
-0.0674152672290802002 -0.00173565163277089596 -0.0773106589913368225 0 0 0 0 0 0
0.0712179690599441528 -0.00538484007120132446 -0.0576500259339809418 0 0 0 0 0 0
0.0285581164062023163 0.0144925564527511597 0.0267088264226913452 0 0 0 0 0 0
0.0892485007643699646 0.0191324185580015182 -0.0554837696254253387 0 0 0 0 0 0
-0.078683122992515564 0.0151638118550181389 -0.0837657079100608826 0 0 0 0 0 0
0.0904438123106956482 0.0115965176373720169 -0.0646715611219406128 0 0 0 0 0 0
-0.0795077905058860779 0.0169057957828044891 -0.0742708891630172729 0 0 0 0 0 0
-0.0759401619434356689 0.0300950314849615097 -0.0993859395384788513 0 0 0 0 0 0
0.075962357223033905 0.0066981571726500988 -0.0542336106300354004 0 0 0 0 0 0
0.0939121171832084656 -0.0121790207922458649 -0.0710774511098861694 0 0 0 0 0 0
-0.0605588555335998535 -0.00573128741234540939 -0.0783265158534049988 0 0 0 0 0 0
-0.0698461756110191345 2.30962177738547325e-05 -0.078809782862663269 0 0 0 0 0 0
0.0750905498862266541 -0.00545075675472617149 -0.0484878942370414734 0 0 0 0 0 0
-0.0629222691059112549 -0.00562574435025453568 -0.080401882529258728 0 0 0 0 0 0
-0.0649148374795913696 -0.00114392070099711418 -0.0776395201683044434 0 0 0 0 0 0
-0.084488794207572937 -0.0133233685046434402 -0.0941666513681411743 0 0 0 0 0 0
0.00770194549113512039 -0.115707799792289734 -0.00995474774390459061 0 0 0 0 0 0
-0.0724353417754173279 -0.0156981740146875381 -0.0740625262260437012 0 0 0 0 0 0
-0.07381468266248703 0.00782809220254421234 -0.0800851285457611084 0 0 0 0 0 0
0.0914889797568321228 -0.00934323016554117203 -0.0696881115436553955 0 0 0 0 0 0
0.0754026323556900024 -0.0087788458913564682 -0.0497284978628158569 0 0 0 0 0 0
0.0591483637690544128 -0.0212407168000936508 -0.11115601658821106 0 0 0 0 0 0
-0.0835111439228057861 -0.00770808150991797447 -0.0993350297212600708 0 0 0 0 0 0
0.00368431489914655685 0.00500229699537158012 0.0295082032680511475 0 0 0 0 0 0
-0.074129156768321991 0.0110912937670946121 -0.0785395801067352295 0 0 0 0 0 0
0.0670278817415237427 -0.011998303234577179 -0.0345016308128833771 0 0 0 0 0 0
0.0726008713245391846 -0.0130028948187828064 -0.046725146472454071 0 0 0 0 0 0
0.0806366950273513794 0.00964388344436883926 -0.0573834441602230072 0 0 0 0 0 0
-0.0718381702899932861 -0.014463549479842186 -0.0777942091226577759 0 0 0 0 0 0
0.0822076946496963501 0.0140402093529701233 -0.0524593070149421692 0 0 0 0 0 0
-0.0752345770597457886 0.0117109967395663261 -0.078079909086227417 0 0 0 0 0 0
0.072520136833190918 -0.017470095306634903 -0.0579884573817253113 0 0 0 0 0 0
0.0808661803603172302 -0.0234891511499881744 -0.0595360621809959412 0 0 0 0 0 0
0.0713295266032218933 -0.00875845830887556076 -0.0534776002168655396 0 0 0 0 0 0
-0.0747319310903549194 -0.00882122199982404709 -0.0740801319479942322 0 0 0 0 0 0
-0.0738897472620010376 0.0115316547453403473 -0.0784875005483627319 0 0 0 0 0 0
-0.0833135992288589478 0.0154222473502159119 -0.0902749225497245789 0 0 0 0 0 0
-0.00471348781138658524 0.123917773365974426 0.00488276500254869461 0 0 0 0 0 0
0.0705302804708480835 -0.0175536051392555237 -0.0460551604628562927 0 0 0 0 0 0
0.0628856271505355835 -0.00691122468560934067 -0.0571000203490257263 0 0 0 0 0 0
0.0228523947298526764 0.0596218369901180267 0.030290067195892334 0 0 0 0 0 0
0.0665174126625061035 -0.0336566120386123657 -0.0512017235159873962 0 0 0 0 0 0
0.0760549753904342651 -0.0205573607236146927 -0.0527873486280441284 0 0 0 0 0 0
-0.0742258653044700623 -0.0289737321436405182 -0.0824950188398361206 0 0 0 0 0 0
0.0864439457654953003 -0.0175264999270439148 -0.0647514387965202332 0 0 0 0 0 0
0.0682238340377807617 -0.00589174963533878326 -0.0585130602121353149 0 0 0 0 0 0
-0.0617733709514141083 -0.00833875220268964767 -0.0805418640375137329 0 0 0 0 0 0
-0.063333660364151001 -0.00307798455469310284 -0.0769786834716796875 0 0 0 0 0 0
0.0729357227683067322 -0.0031478505115956068 -0.0537110678851604462 0 0 0 0 0 0
-0.0603897795081138611 -0.00777946971356868744 -0.0787706822156906128 0 0 0 0 0 0
0.0673231333494186401 -0.014928910881280899 -0.0558161512017250061 0 0 0 0 0 0
0.0797264054417610168 -0.0168842263519763947 -0.0584326013922691345 0 0 0 0 0 0
-0.0638556182384490967 -0.0109078008681535721 -0.0788321197032928467 0 0 0 0 0 0
-0.066143527626991272 -0.00452001392841339111 -0.0806203484535217285 0 0 0 0 0 0
0.0789816528558731079 -0.0163649152964353561 -0.0588083788752555847 0 0 0 0 0 0
0.0783011764287948608 -0.0175934415310621262 -0.0566819459199905396 0 0 0 0 0 0
0.0755794867873191833 -0.0179603137075901031 -0.0541026145219802856 0 0 0 0 0 0
0.0899875909090042114 -0.00953818950802087784 -0.0673885196447372437 0 0 0 0 0 0
-0.0731407329440116882 -0.00595942791551351547 -0.0759288892149925232 0 0 0 0 0 0
0.0322395637631416321 0.0217500701546669006 0.0301416963338851929 0 0 0 0 0 0
0.0883333608508110046 0.022380385547876358 -0.0620669536292552948 0 0 0 0 0 0
-0.077236078679561615 -0.0112545853480696678 -0.0870746225118637085 0 0 0 0 0 0
-0.0796596109867095947 -0.0177921578288078308 -0.0938128829002380371 0 0 0 0 0 0
0.0745790451765060425 0.00300579960457980633 -0.0472231023013591766 0 0 0 0 0 0
0.0761977583169937134 0.00955552514642477036 -0.0467856824398040771 0 0 0 0 0 0
-0.0778929293155670166 0.0513178817927837372 -0.0990445837378501892 0 0 0 0 0 0
-0.0842302441596984863 0.0238669924437999725 -0.0972335785627365112 0 0 0 0 0 0
-0.0784650072455406189 0.0285634063184261322 -0.0796621814370155334 0 0 0 0 0 0
0.00853992532938718796 0.0187103487551212311 0.0242302305996417999 0 0 0 0 0 0
-0.0812195315957069397 -0.0127036813646554947 -0.0966013222932815552 0 0 0 0 0 0
-0.0843268260359764099 -0.00217774743214249611 -0.101320736110210419 0 0 0 0 0 0
0.0771563202142715454 -0.0167854037135839462 -0.0567543171346187592 0 0 0 0 0 0
0.0402117669582366943 -0.00830918643623590469 0.0227335691452026367 0 0 0 0 0 0
0.0443731248378753662 -0.00637913309037685394 0.0191807989031076431 0 0 0 0 0 0
0.00686124479398131371 -0.0474647805094718933 0.0332790911197662354 0 0 0 0 0 0
0.0320031903684139252 0.0184167101979255676 0.0232839547097682953 0 0 0 0 0 0
0.0062695033848285675 0.125314295291900635 0.00555491633713245392 0 0 0 0 0 0
0.0689161494374275208 -0.00386180868372321129 -0.0556808039546012878 0 0 0 0 0 0
0.0289257615804672241 0.0134866014122962952 0.0265358667820692062 0 0 0 0 0 0
0.00909352861344814301 -0.04984317347407341 0.0266911648213863373 0 0 0 0 0 0
0.01547250896692276 -0.0313185565173625946 0.0353441834449768066 0 0 0 0 0 0
0.009172072634100914 -0.0480483099818229675 0.0269377343356609344 0 0 0 0 0 0
0.0403156839311122894 0.00804608315229415894 0.0186482220888137817 0 0 0 0 0 0
0.0176881980150938034 -0.0530960038304328918 0.0324497036635875702 0 0 0 0 0 0
0.0085921119898557663 -0.0233086720108985901 0.0353303104639053345 0 0 0 0 0 0
0.0286522787064313889 0.01116950623691082 0.026077859103679657 0 0 0 0 0 0
0.0110947368666529655 -0.0487076602876186371 0.0240291990339756012 0 0 0 0 0 0
-0.000502759299706667662 -0.0151330921798944473 0.0405537597835063934 0 0 0 0 0 0
0.0888915956020355225 0.0200218763202428818 -0.0587660223245620728 0 0 0 0 0 0
0.0797679945826530457 -0.0232391413301229477 -0.0637241750955581665 0 0 0 0 0 0
-0.00528396246954798698 -0.0222108662128448486 0.0433799438178539276 0 0 0 0 0 0
-0.0747205018997192383 0.000660436227917671204 -0.075039990246295929 0 0 0 0 0 0
-0.0770224034786224365 0.00939379073679447174 -0.0757186338305473328 0 0 0 0 0 0
0.0747640430927276611 -0.0117899021133780479 -0.0627887845039367676 0 0 0 0 0 0
0.0506756603717803955 0.0158909745514392853 0.00865415669977664948 0 0 0 0 0 0
-0.0114125115796923637 -0.0152608845382928848 0.0490046367049217224 0 0 0 0 0 0
-0.076064184308052063 0.01264956034719944 -0.0778723061084747314 0 0 0 0 0 0
0.0714074224233627319 -0.0098577011376619339 -0.0594314448535442352 0 0 0 0 0 0
-0.07456168532371521 -0.0171099640429019928 -0.089019089937210083 0 0 0 0 0 0
-0.00614211242645978928 0.00743720214813947678 0.0386307276785373688 0 0 0 0 0 0
-0.0800280570983886719 0.0150812771171331406 -0.0766713321208953857 0 0 0 0 0 0
-0.0810948461294174194 -0.0137979043647646904 -0.0878589600324630737 0 0 0 0 0 0
0.0876585245132446289 -0.0131253739818930626 -0.0637541636824607849 0 0 0 0 0 0
-0.0863765478134155273 0.0236682333052158356 -0.085769161581993103 0 0 0 0 0 0
-0.00958683621138334274 -0.0200608670711517334 0.0429617017507553101 0 0 0 0 0 0
-0.00839549489319324493 0.0117859719321131706 0.0395509377121925354 0 0 0 0 0 0
-0.00913335755467414856 0.00920163653790950775 0.0418612360954284668 0 0 0 0 0 0
0.0317770019173622131 0.0152714652940630913 0.024582473561167717 0 0 0 0 0 0
0.0772827863693237305 -0.0174069534987211227 -0.067092597484588623 0 0 0 0 0 0
0.0836501643061637878 -0.0125308316200971603 -0.0642742067575454712 0 0 0 0 0 0
0.0853094607591629028 -0.0221787989139556885 -0.0678414925932884216 0 0 0 0 0 0
0.0103205312043428421 0.0184491705149412155 0.0232333894819021225 0 0 0 0 0 0
-0.00671091116964817047 -0.0181250330060720444 0.0455168932676315308 0 0 0 0 0 0
-0.00449328217655420303 -0.0200075190514326096 0.0472321324050426483 0 0 0 0 0 0
0.0735514014959335327 -0.0171832889318466187 -0.0536573044955730438 0 0 0 0 0 0
-0.00245558773167431355 -0.117542922496795654 -0.00775344250723719597 0 0 0 0 0 0
-0.00909062381833791733 -0.117446005344390869 -0.00831854809075593948 0 0 0 0 0 0
0.0775446891784667969 0.0101925507187843323 -0.0532219931483268738 0 0 0 0 0 0
0.0745770633220672607 0.00269356556236743927 -0.0580978542566299438 0 0 0 0 0 0
0.0756056010723114014 -0.0041093495674431324 -0.0512710772454738617 0 0 0 0 0 0
0.086973533034324646 -0.00249307230114936829 -0.0628387778997421265 0 0 0 0 0 0
0.0714171752333641052 -0.0171784255653619766 -0.0571422092616558075 0 0 0 0 0 0
-0.00750321056693792343 -0.0190256033092737198 0.0520381182432174683 0 0 0 0 0 0
-0.00623501744121313095 -0.0161534734070301056 0.0516035966575145721 0 0 0 0 0 0
0.0124031975865364075 0.0161072462797164917 0.0280394908040761948 0 0 0 0 0 0
0.086116105318069458 0.0212062336504459381 -0.052051939070224762 0 0 0 0 0 0
-0.00582324853166937828 -0.0422098264098167419 0.0355516634881496429 0 0 0 0 0 0
0.0890683233737945557 -0.00266689667478203773 -0.0641123950481414795 0 0 0 0 0 0
0.04380006343126297 0.052997104823589325 0.0159621667116880417 0 0 0 0 0 0
0.0221436768770217896 0.144168063998222351 -0.0707677751779556274 0 0 0 0 0 0
0.055806867778301239 -0.0843881890177726746 -0.0643256902694702148 0 0 0 0 0 0
0.0941576063632965088 -0.00202259328216314316 -0.0703998729586601257 0 0 0 0 0 0
-0.0140000088140368462 -0.0188449583947658539 0.0467433631420135498 0 0 0 0 0 0
-0.0182756930589675903 -0.0260267257690429688 0.0463990494608879089 0 0 0 0 0 0
0.00925026834011077881 0.137707233428955078 0.000417765695601701736 0 0 0 0 0 0
0.067048981785774231 -0.00901109911501407623 -0.0590840578079223633 0 0 0 0 0 0
-0.0269245468080043793 -0.0125634996220469475 0.0420984774827957153 0 0 0 0 0 0
0.0727767646312713623 -0.00926259905099868774 -0.0526036582887172699 0 0 0 0 0 0
0.0298341643065214157 0.0148476129397749901 0.0259544756263494492 0 0 0 0 0 0
0.00131570128723978996 0.140709921717643738 -0.0023251452948898077 0 0 0 0 0 0
-0.00514784781262278557 -0.0390006005764007568 0.0337368175387382507 0 0 0 0 0 0
-0.0273937471210956573 -0.0212538093328475952 0.0407232902944087982 0 0 0 0 0 0
-0.00280617177486419678 -0.0433689020574092865 0.0358149856328964233 0 0 0 0 0 0
-0.0072565888985991478 -0.0450579188764095306 0.0418572500348091125 0 0 0 0 0 0
-0.00107660365756601095 -0.0249877404421567917 0.0382579192519187927 0 0 0 0 0 0
-0.0242319852113723755 -0.0119631215929985046 0.0425586216151714325 0 0 0 0 0 0
-0.00948868505656719208 -0.0260610189288854599 0.0430410876870155334 0 0 0 0 0 0
-0.00724953878670930862 -0.0238840244710445404 0.0416082851588726044 0 0 0 0 0 0
-0.0106551218777894974 -0.0247885994613170624 0.0435645058751106262 0 0 0 0 0 0
-0.00832017697393894196 -0.0225376896560192108 0.0439072474837303162 0 0 0 0 0 0
0.0809288248419761658 -0.0277537759393453598 -0.0585539489984512329 0 0 0 0 0 0
0.0737318620085716248 -0.00228516245260834694 -0.0536219626665115356 0 0 0 0 0 0
0.0718686729669570923 0.0550814568996429443 -0.0292297359555959702 0 0 0 0 0 0
0.0752189606428146362 0.0017267970833927393 -0.057544708251953125 0 0 0 0 0 0
0.0703770965337753296 -0.0201235450804233551 -0.0473960600793361664 0 0 0 0 0 0
0.0176275111734867096 0.139246284961700439 -0.109015576541423798 0 0 0 0 0 0
0.0722837150096893311 -0.00268414872698485851 -0.0550139620900154114 0 0 0 0 0 0
-0.00394914951175451279 0.0598209649324417114 0.0361609272658824921 0 0 0 0 0 0
0.0920966193079948425 0.0207090266048908234 -0.0575292520225048065 0 0 0 0 0 0
-0.00961082056164741516 -0.0133260563015937805 0.0420467555522918701 0 0 0 0 0 0
0.056306745857000351 -0.061194639652967453 -0.0446754172444343567 0 0 0 0 0 0
0.0721017494797706604 -0.00519234687089920044 -0.0539184734225273132 0 0 0 0 0 0
0.0849640220403671265 0.0234563332051038742 -0.0539450272917747498 0 0 0 0 0 0
-0.00925804954022169113 -0.0374013856053352356 0.0459728650748729706 0 0 0 0 0 0
-0.00401398632675409317 -0.0367966219782829285 0.0443767383694648743 0 0 0 0 0 0
-0.0182167291641235352 -0.0263440292328596115 0.0459737889468669891 0 0 0 0 0 0
0.0117633137851953506 -0.047671683132648468 0.0348318815231323242 0 0 0 0 0 0
0.0800976455211639404 0.0103377690538764 -0.0569811314344406128 0 0 0 0 0 0
0.0137481940910220146 -0.0442141890525817871 0.0356121286749839783 0 0 0 0 0 0
0.0058208066038787365 -0.0398835912346839905 0.0398553311824798584 0 0 0 0 0 0
0.000330601818859577179 -0.0343587733805179596 0.0417326167225837708 0 0 0 0 0 0
0.0721576809883117676 -0.00684895738959312439 -0.0535482019186019897 0 0 0 0 0 0
0.0279399380087852478 0.0150488121435046196 0.0223458856344223022 0 0 0 0 0 0
0.0767914354801177979 -0.000156754598719999194 -0.0562683343887329102 0 0 0 0 0 0
0.0168734397739171982 -0.0429528877139091492 0.0347933024168014526 0 0 0 0 0 0
0.0179791748523712158 -0.048473309725522995 0.0332857817411422729 0 0 0 0 0 0
0.0147033259272575378 -0.0387072712182998657 0.0359583720564842224 0 0 0 0 0 0
0.00852716900408267975 -0.0467082187533378601 0.0361895263195037842 0 0 0 0 0 0
0.00905832555145025253 -0.038037717342376709 0.0383456870913505554 0 0 0 0 0 0
0.00991214346140623093 -0.0475940927863121033 0.0352417714893817902 0 0 0 0 0 0
0.00804697256535291672 -0.0459718555212020874 0.0369589701294898987 0 0 0 0 0 0
0.070508122444152832 -0.0108055341988801956 -0.0535350963473320007 0 0 0 0 0 0
0.00603268574923276901 -0.0471715591847896576 0.0342177711427211761 0 0 0 0 0 0
-0.0878129228949546814 0.0271702520549297333 -0.0869144201278686523 0 0 0 0 0 0
0.0821279734373092651 0.0181575603783130646 -0.0493130981922149658 0 0 0 0 0 0
0.0338824167847633362 0.0140356039628386497 0.0227452516555786133 0 0 0 0 0 0
0.0759784653782844543 -0.0165992807596921921 -0.0595695227384567261 0 0 0 0 0 0
0.0505174696445465088 -0.00369271961972117424 0.0118155507370829582 0 0 0 0 0 0
0.0531168803572654724 0.00277582276612520218 0.00728950183838605881 0 0 0 0 0 0
0.0757396966218948364 -0.00448376545682549477 -0.0862629041075706482 0 0 0 0 0 0
0.00740445312112569809 -0.0475264601409435272 0.0328934565186500549 0 0 0 0 0 0
0.00797128304839134216 -0.0482148155570030212 0.0302292890846729279 0 0 0 0 0 0
0.00790186226367950439 -0.0475890040397644043 0.0304248388856649399 0 0 0 0 0 0
0.00735948933288455009 -0.0474760457873344421 0.0340392254292964935 0 0 0 0 0 0
0.0196812078356742859 0.00851117633283138275 0.0284556522965431213 0 0 0 0 0 0
0.00771778635680675507 -0.047144666314125061 0.0357081145048141479 0 0 0 0 0 0
0.00711404532194137573 -0.0473248623311519623 0.0348782464861869812 0 0 0 0 0 0
0.00796995218843221664 -0.0474363639950752258 0.0352222546935081482 0 0 0 0 0 0
0.00671907886862754822 -0.0471566319465637207 0.035413205623626709 0 0 0 0 0 0
0.00598680786788463593 -0.0468142293393611908 0.0361150354146957397 0 0 0 0 0 0
0.00654992740601301193 -0.0461693108081817627 0.037120964378118515 0 0 0 0 0 0
-0.000141558237373828888 -0.0418794117867946625 0.0424652993679046631 0 0 0 0 0 0
0.00725785177201032639 -0.0467266812920570374 0.0363665632903575897 0 0 0 0 0 0
-0.00373000721447169781 -0.0453604459762573242 0.0389261282980442047 0 0 0 0 0 0
0.00424870476126670837 -0.0404603704810142517 0.0308347269892692566 0 0 0 0 0 0
-6.9961264671292156e-05 -0.0440874658524990082 0.041131146252155304 0 0 0 0 0 0
-7.5642019510269165e-06 -0.0393636822700500488 0.0328378751873970032 0 0 0 0 0 0
0.00139039882924407721 -0.0437765233218669891 0.0342380031943321228 0 0 0 0 0 0
0.00776369636878371239 -0.0457779094576835632 0.0289338678121566772 0 0 0 0 0 0
0.00877517741173505783 -0.0469715967774391174 0.0275122430175542831 0 0 0 0 0 0
0.0105170421302318573 -0.0469437651336193085 0.0245843883603811264 0 0 0 0 0 0
0.00939480215311050415 -0.0448814928531646729 0.0261692684143781662 0 0 0 0 0 0
-0.0168087780475616455 -0.0353942811489105225 0.0455794744193553925 0 0 0 0 0 0
-0.00151646137237548828 -0.131861954927444458 -0.011713842861354351 0 0 0 0 0 0
0.0342691875994205475 0.0200187191367149353 0.0256322659552097321 0 0 0 0 0 0
0.000280726409982889891 -0.0457242205739021301 0.037051074206829071 0 0 0 0 0 0
-0.000102996207715477794 -0.0456370078027248383 0.0393812023103237152 0 0 0 0 0 0
0.00720243854448199272 -0.0425031408667564392 0.0284773409366607666 0 0 0 0 0 0
0.00589786749333143234 -0.0443697124719619751 0.0308546833693981171 0 0 0 0 0 0
0.0326133966445922852 0.0161185786128044128 0.0238727889955043793 0 0 0 0 0 0
0.0326626822352409363 0.0168693438172340393 0.023735731840133667 0 0 0 0 0 0
0.0297132395207881927 0.116275668144226074 -0.138586729764938354 0 0 0 0 0 0
-0.0157219301909208298 0.005462616216391325 0.0486952885985374451 0 0 0 0 0 0
0.00482097221538424492 -0.046042170375585556 0.0333845838904380798 0 0 0 0 0 0
0.00440211314707994461 -0.0468553528189659119 0.0354609154164791107 0 0 0 0 0 0
0.00426661688834428787 -0.0405021235346794128 0.040661342442035675 0 0 0 0 0 0
-0.000220753572648391128 -0.0397829189896583557 0.0430113077163696289 0 0 0 0 0 0
0.0317357517778873444 0.0197581425309181213 0.0224293749779462814 0 0 0 0 0 0
-0.00792140141129493713 -0.0428610853850841522 0.0440911948680877686 0 0 0 0 0 0
-0.00877028517425060272 -0.0400410294532775879 0.0453919470310211182 0 0 0 0 0 0
0.0271566659212112427 0.0124172084033489227 0.0273180492222309113 0 0 0 0 0 0
0.0130930300801992416 -0.0606247782707214355 0.0328887253999710083 0 0 0 0 0 0
0.00853666104376316071 -0.0517317354679107666 0.0266468636691570282 0 0 0 0 0 0
0.00778372678905725479 -0.0477413982152938843 0.035242866724729538 0 0 0 0 0 0
0.00766406720504164696 -0.0489059984683990479 0.0358939692378044128 0 0 0 0 0 0
0.00720671191811561584 -0.0542533174157142639 0.036184459924697876 0 0 0 0 0 0
0.0103790070861577988 -0.0513030290603637695 0.0345390401780605316 0 0 0 0 0 0
0.00575520191341638565 -0.049661438912153244 0.0371262133121490479 0 0 0 0 0 0
0.00467413244768977165 -0.0334083177149295807 0.0393130742013454437 0 0 0 0 0 0
0.0256804432719945908 0.0147662898525595665 0.0231027305126190186 0 0 0 0 0 0
0.00671903323382139206 -0.0513493567705154419 0.0366445258259773254 0 0 0 0 0 0
0.0271937884390354156 0.0109243495389819145 0.0267615132033824921 0 0 0 0 0 0
0.00872898474335670471 -0.0498381331562995911 0.0354405604302883148 0 0 0 0 0 0
0.00319398567080497742 -0.0480717644095420837 0.0343230217695236206 0 0 0 0 0 0
0.0157336220145225525 -0.0576228313148021698 0.0323225110769271851 0 0 0 0 0 0
0.0323511920869350433 0.143502160906791687 -0.0624930374324321747 0 0 0 0 0 0
0.0101152472198009491 -0.0568109378218650818 0.0344331823289394379 0 0 0 0 0 0
0.00362835987471044064 -0.0472844354808330536 0.0370046906173229218 0 0 0 0 0 0
0.00566430157050490379 -0.0597762428224086761 0.0363046526908874512 0 0 0 0 0 0
-0.0162426680326461792 -0.0283019617199897766 0.0449415966868400574 0 0 0 0 0 0
-0.00727987941354513168 -0.0588828250765800476 0.0415959097445011139 0 0 0 0 0 0
0.000925660482607781887 -0.047325626015663147 0.038907371461391449 0 0 0 0 0 0
0.00147633790038526058 -0.0487135350704193115 0.0393729768693447113 0 0 0 0 0 0
-0.0137920919805765152 -0.0280531700700521469 0.0447897240519523621 0 0 0 0 0 0
0.00594138866290450096 -0.0473594963550567627 0.0345674753189086914 0 0 0 0 0 0
0.00427730847150087357 -0.055947478860616684 0.0376388207077980042 0 0 0 0 0 0
-0.0017938641831278801 -0.0654438883066177368 0.0382620356976985931 0 0 0 0 0 0
0.00557424779981374741 -0.0652289241552352905 0.0357155576348304749 0 0 0 0 0 0
0.00309017067775130272 -0.0528839342296123505 0.0387548655271530151 0 0 0 0 0 0
0.0884944349527359009 0.0231204833835363388 -0.0598683767020702362 0 0 0 0 0 0
-0.00226155365817248821 -0.0542898401618003845 0.0415505841374397278 0 0 0 0 0 0
-0.00279215793125331402 -0.0608465299010276794 0.0394895598292350769 0 0 0 0 0 0
-0.00355322239920496941 -0.0489412806928157806 0.0421123020350933075 0 0 0 0 0 0
-0.016490396112203598 -0.0417907051742076874 0.0449597761034965515 0 0 0 0 0 0
-0.01345013827085495 -0.0226459614932537079 0.0474961698055267334 0 0 0 0 0 0
-0.015568416565656662 -0.0228275172412395477 0.0529228858649730682 0 0 0 0 0 0
-0.0170871652662754059 -0.024436047300696373 0.0491447597742080688 0 0 0 0 0 0
-0.0147472582757472992 -0.0229343026876449585 0.0497532002627849579 0 0 0 0 0 0
-0.00855625048279762268 -0.0296908281743526459 0.0436227843165397644 0 0 0 0 0 0
-0.00935547519475221634 -0.0186160225421190262 0.0539960712194442749 0 0 0 0 0 0
-0.0120422057807445526 -0.0182504113763570786 0.0571885108947753906 0 0 0 0 0 0
-0.00842591933906078339 -0.0171143300831317902 0.0539112389087677002 0 0 0 0 0 0
-0.0103064877912402153 -0.0178926549851894379 0.0554507449269294739 0 0 0 0 0 0
